# .PCD v0.7 - Point Cloud Data file format
VERSION 0.7
FIELDS x y z
SIZE 4 4 4
TYPE F F F
COUNT 1 1 1
WIDTH 1460
HEIGHT 1
VIEWPOINT 0 0 0 1 0 0 0
POINTS 1460
DATA ascii
3.4621089 3.0535769 -0.080578275
3.4607756 3.0524011 0.080547243
3.4709976 3.0614169 0.24255253
3.4601214 3.0518241 0.40364435
3.4592721 3.051075 0.56634915
3.4590061 3.0508404 0.73049897
3.4677837 3.0585823 0.8987937
3.4671962 3.058064 1.0673289
3.4632604 3.0545926 1.2373521
1.1874373 1.0779232 -0.42971548
1.383381 1.2557956 -0.431344
1.6335407 1.4828837 -0.42884475
2.00073 1.8162082 -0.42797548
2.5552878 2.3196206 -0.42374197
3.3569317 3.0473311 -0.39665431
3.3616066 3.0515747 -0.2379362
3.368645 3.0579641 -0.079413548
3.3590426 3.0492473 0.079187177
3.3528738 3.0436475 0.2373181
3.3590171 3.0492241 0.39690071
3.3538635 3.0445457 0.55616927
3.3643661 3.0540798 0.71967041
3.3606071 3.0506675 0.88224232
3.358417 3.0486794 1.0471685
3.3594258 3.0495951 1.2157251
1.1737094 1.0965085 -0.43038318
1.3554475 1.2662929 -0.42824185
1.6109425 1.5049826 -0.42852345
1.9628935 1.833784 -0.42545295
2.5279694 2.361692 -0.4247739
3.2686217 3.053628 -0.39134407
3.2619669 3.0474107 -0.23394707
3.2637713 3.0490966 -0.077962093
3.2777178 3.0621257 0.078295231
3.2789292 3.0632575 0.2351636
3.2592254 3.0448496 0.39021906
3.2621224 3.0475559 0.54813343
3.2761748 3.0606842 0.71010387
3.2746398 3.0592501 0.8710801
3.2729986 3.0577168 1.0340754
3.2624855 3.0478952 1.1963089
1.1569515 1.1122864 -0.43003213
1.3439162 1.2920331 -0.43039736
1.5871197 1.5258476 -0.42795223
1.9393524 1.864482 -0.42609119
2.4864655 2.3904734 -0.42350599
3.1809855 3.0581808 -0.38605291
3.1745412 3.0519853 -0.23078632
3.1801133 3.0573423 -0.077001184
3.1655295 3.0433216 0.076648064
3.1593521 3.0373826 0.22968209
3.1610403 3.0390055 0.3836323
3.1704624 3.0480638 0.54000735
3.1681902 3.0458796 0.69607669
3.1825137 3.0596502 0.85813552
3.1794672 3.0567212 1.0182438
3.1795471 3.056798 1.1818192
1.1390284 1.1268653 -0.42932144
1.3331501 1.3189142 -0.43295097
1.5736002 1.5567966 -0.43027118
1.9220288 1.9015044 -0.42822102
2.4631515 2.4368489 -0.42543232
3.0775442 3.0446808 -0.37874916
3.086082 3.0531273 -0.22750911
3.0841751 3.0512409 -0.075727932
3.0832 3.050276 0.075703986
3.0815232 3.0486171 0.22717303
3.0948679 3.0618193 0.38088116
3.084372 3.0514357 0.53272873
3.0894859 3.0564947 0.68832618
3.0871069 3.0541413 0.84411091
3.0901687 3.0571704 1.0035566
3.0769861 3.0441287 1.1597745
1.122597 1.1428612 -0.42924991
1.306729 1.330317 -0.43051025
1.5524958 1.5805203 -0.43064222
1.8947508 1.9289534 -0.42825115
2.4231794 2.4669209 -0.42458364
3.0014331 3.0556126 -0.37472647
2.9901464 3.0441222 -0.22362591
2.9985161 3.0526431 -0.07468988
3.0038836 3.0581074 0.074823581
2.9895043 3.0434685 0.2235779
3.0081248 3.0624251 0.37556192
2.9947 3.0487578 0.52472407
3.0065439 3.0608156 0.67953831
2.9977574 3.0518706 0.83153909
3.0056109 3.059866 0.99021786
2.994545 3.0486002 1.1450309
1.1084142 1.1612085 -0.43013808
1.285066 1.3462745 -0.42967784
1.5283587 1.6011554 -0.43026
1.860526 1.9491439 -0.42677766
2.3888109 2.5025914 -0.42479455
2.9164464 3.0553586 -0.3695381
2.9125309 3.0512564 -0.22106487
2.9150596 3.0539055 -0.073692337
2.9149268 3.0537665 0.073688976
2.9205906 3.0597 0.2216766
2.9015129 3.0397136 0.36764589
2.915283 3.0541396 0.51841539
2.9071722 3.0456424 0.66686308
2.9066401 3.045085 0.81827056
2.9134092 3.0521767 0.97413468
2.912133 3.0508397 1.1301005
1.0952182 1.1807662 -0.43153161
1.2708395 1.3701055 -0.43143401
1.5005904 1.6178024 -0.42891774
1.835008 1.9783416 -0.42737594
2.3559825 2.5400097 -0.42537838
2.828249 3.049165 -0.36385554
2.8340187 3.0553854 -0.21840271
2.8258817 3.0466127 -0.072532892
2.8314509 3.0526171 0.072675847
2.8371882 3.0588026 0.21864699
2.8356414 3.0571349 0.36480656
2.8326635 3.0539243 0.51144427
2.828661 3.0496092 0.65879905
2.8214135 3.0417957 0.8064521
2.8315558 3.0527303 0.96127754
2.81549 3.0354095 1.1093433
1.0789136 1.1971042 -0.43181449
1.2530333 1.390298 -0.4321005
1.4872681 1.6501924 -0.43181691
1.8135251 2.0121894 -0.42903644
2.3151405 2.5687549 -0.42459926
2.7511449 3.0525217 -0.35952026
2.7566552 3.0586357 -0.21579249
2.7482724 3.0493345 -0.071653828
2.7546356 3.0563948 0.071819723
2.7555029 3.0573571 0.21570228
2.7444909 3.0451386 0.35865068
2.752388 3.053901 0.5047909
2.7561345 3.0580578 0.65203518
2.7519832 3.0534518 0.79901719
2.7440176 3.0446136 0.946257
2.7496135 3.0508225 1.1004801
1.0583494 1.2086307 -0.43046382
1.2198312 1.3930424 -0.42748317
1.4582698 1.6653383 -0.43027422
1.7863122 2.0399613 -0.42946231
2.2903776 2.615602 -0.42688021
2.6981895 3.0813215 -0.35832688
2.7048433 3.0889201 -0.21517561
2.7012496 3.0848162 -0.071571708
2.6998506 3.0832186 0.071534641
2.7056897 3.0898867 0.21524295
2.6883731 3.070111 0.35702324
2.6986732 3.0818739 0.50297827
2.6976917 3.0807531 0.64857471
2.7036371 3.0875425 0.79772979
2.6966157 3.0795243 0.94501412
2.7042792 3.0882759 1.099915
1.0385659 1.2208596 -0.42948079
1.2118201 1.4245241 -0.43177697
1.439779 1.6924955 -0.43192202
1.7491373 2.0561538 -0.42755666
2.2481477 2.6427526 -0.42601594
2.6379604 3.100987 -0.35618639
2.6372633 3.1001675 -0.21330769
2.6344404 3.0968492 -0.070968747
2.6421542 3.105917 0.071176544
2.6337135 3.0959945 0.21302056
2.6331992 3.0953901 0.35554352
2.6358783 3.0985396 0.49948955
2.6348624 3.0973451 0.64406204
2.6323955 3.0944452 0.78969729
2.6371696 3.1000574 0.93963546
2.6337047 3.0959842 1.0891225
1.029845 1.2463189 -0.43320712
1.1820878 1.4305632 -0.42843512
1.4173276 1.7152506 -0.43250763
1.7268409 2.0898237 -0.42937437
2.1961257 2.6577525 -0.42332336
2.5782864 3.1202435 -0.35412309
2.5759685 3.1174383 -0.21193738
2.5727055 3.1134896 -0.070498981
2.5732303 3.1141245 0.07051336
2.5754492 3.1168098 0.21189466
2.5753655 3.1167085 0.35372189
2.5762985 3.1178377 0.49660516
2.568675 3.1086118 0.63869417
2.5745208 3.1156864 0.78563344
2.5763249 3.1178696 0.93376154
2.5688262 3.1087947 1.0805837
1.0078242 1.2558488 -0.43146122
1.1613421 1.4471474 -0.42837968
1.3808929 1.7207295 -0.42886129
1.6937745 2.110611 -0.42862028
2.1613364 2.6932392 -0.42400476
2.5787716 3.2134051 -0.36047012
2.5767016 3.2108257 -0.2157568
2.5835855 3.2194035 -0.072052471
2.5794048 3.2141941 0.071935885
2.5737505 3.2071483 0.2155097
2.5734532 3.2067778 0.3597267
2.566067 3.1975737 0.50340366
2.5711572 3.2039165 0.65064746
2.5683467 3.2004144 0.79764658
2.5735841 3.2069407 0.94930774
2.5812178 3.2164533 1.1050494
0.98834699 1.2683471 -0.43085083
1.1425087 1.4661832 -0.42912981
1.3609591 1.7465209 -0.43039021
1.6699706 2.1430757 -0.4303149
2.1384664 2.744297 -0.42718032
2.5742855 3.3035846 -0.36641526
2.5846148 3.3168399 -0.22037211
2.5754433 3.3050702 -0.073137231
2.5651877 3.2919092 0.072845995
2.581193 3.3124487 0.22008036
2.5710523 3.2994354 0.36595508
2.5717583 3.3003414 0.51373476
2.5823987 3.3139961 0.66542763
2.576052 3.3058515 0.81465167
2.5767074 3.3066926 0.96781927
2.5726352 3.3014665 1.1214907
0.97071707 1.2831873 -0.43112794
1.1218256 1.482937 -0.4292897
1.3409457 1.772591 -0.43204054
1.6381919 2.1655197 -0.43006921
2.0942543 2.7683868 -0.42622042
2.5794933 3.4098225 -0.37406513
2.5822909 3.4135203 -0.22431688
2.5736442 3.4020903 -0.074461371
2.5789504 3.4091048 0.07461489
2.5697272 3.3969128 0.22322552
2.5777926 3.4075744 0.37381855
2.5635378 3.388731 0.52172846
2.5732274 3.4015396 0.67554104
2.566958 3.3932521 0.82705063
2.5735307 3.4019406 0.98481464
2.5746055 3.4033613 1.1434684
0.95919156 1.3063993 -0.43426946
1.1102731 1.5121692 -0.4331072
1.3120574 1.7869953 -0.43092987
1.6030738 2.1833537 -0.42901012
2.0493917 2.7912297 -0.42517751
2.5764439 3.5090637 -0.38086757
2.5807297 3.5149012 -0.2285282
2.581434 3.5158603 -0.076134942
2.5748367 3.506875 0.075940371
2.5695307 3.4996481 0.2275365
2.5731347 3.5045569 0.3803784
2.5739105 3.5056133 0.53399688
2.5714715 3.5022917 0.68817002
2.5685177 3.4982688 0.84359956
2.5707753 3.5013435 1.0028355
2.5773938 3.5103576 1.1669029
0.93217129 1.3084486 -0.4304713
1.0815413 1.5181129 -0.43033159
1.2849789 1.8036693 -0.43047136
1.570549 2.2045119 -0.42870647
2.0132754 2.8259478 -0.42603275
2.5754519 3.6150506 -0.38833028
2.5683632 3.6051006 -0.23197877
2.5763512 3.616313 -0.077503726
2.5679317 3.6044946 0.077250436
2.5771489 3.6174326 0.23277229
2.5661807 3.6020372 0.38693237
2.5784914 3.6193168 0.5456391
2.5700316 3.6074424 0.70153123
2.5670531 3.6032615 0.85996968
2.5662706 3.6021631 1.0210866
2.575907 3.6156895 1.1895388
0.92148453 1.3334278 -0.43430552
1.0603493 1.5343713 -0.43059397
1.2610555 1.8248016 -0.4311628
1.5453738 2.2362225 -0.43052751
1.9778471 2.8620298 -0.42716071
2.5742199 3.7250073 -0.39614329
2.572613 3.7226818 -0.23715106
2.5718377 3.7215598 -0.078962311
2.5694506 3.7181058 0.078889027
2.5738096 3.7244134 0.23726137
2.5741475 3.7249024 0.39613211
2.5757647 3.7272422 0.5562945
2.5746057 3.7255654 0.71726245
2.5729611 3.7231855 0.87971157
2.5648491 3.7114472 1.0415515
2.5683599 3.7165272 1.2104954
0.89465559 1.3350629 -0.43062305
1.0354089 1.545104 -0.42940289
1.2333987 1.8405571 -0.43067008
1.5067623 2.2484879 -0.42869282
1.9319104 2.8829215 -0.42610803
2.5557597 3.8138697 -0.40166202
2.5588098 3.8184211 -0.2408922
2.5533226 3.8102331 -0.080060102
2.5618043 3.8228898 0.080326051
2.5572464 3.8160882 0.24074502
2.5562246 3.8145635 0.4017351
2.5538464 3.8110144 0.5632841
2.5553274 3.8132248 0.72702283
2.5560131 3.8142478 0.89249194
2.5564175 3.8148513 1.0601928
2.5523872 3.8088372 1.2285362
0.87833768 1.3521658 -0.43204024
1.0182761 1.5675954 -0.4315587
1.2013425 1.8494189 -0.42867619
1.4709251 2.2644305 -0.42767447
1.8882208 2.9068406 -0.42560509
2.4720051 3.8055534 -0.39701915
2.4713032 3.8044727 -0.23775631
2.4712667 3.8044167 -0.079186544
2.4786339 3.815758 0.079422608
2.4721088 3.8057129 0.23783383
2.4682326 3.7997458 0.39641324
2.4761145 3.8118794 0.55811638
2.474834 3.8099082 0.71956301
2.475013 3.8101838 0.88316125
2.4791028 3.8164802 1.0506762
2.4769707 3.8131976 1.2183822
0.86576504 1.3755122 -0.43549576
0.99799532 1.5855974 -0.43253776
1.1849517 1.8826303 -0.43239865
1.4445441 2.2950664 -0.42951146
1.8606253 2.9561286 -0.42887834
2.3997161 3.8126268 -0.39413327
2.3969603 3.8082483 -0.23582402
2.3976095 3.8092797 -0.078565404
2.4014983 3.8154581 0.078692831
2.4004707 3.8138258 0.2361694
2.3958735 3.8065219 0.39350218
2.3948944 3.8049662 0.5520286
2.3908598 3.7985561 0.71088296
2.3979812 3.8098702 0.87504315
2.4019048 3.8161042 1.0410014
2.396436 3.8074155 1.2054514
0.84215748 1.3814752 -0.43352282
0.97289348 1.5959346 -0.43151471
1.1457778 1.8795342 -0.42787698
1.4022473 2.3002467 -0.42668107
1.81674 2.9801807 -0.42855126
2.3222628 3.8094404 -0.39032772
2.3206398 3.806778 -0.23365211
2.3194122 3.804764 -0.077779584
2.3233321 3.8111944 0.077911042
2.326421 3.8162613 0.2342342
2.3272455 3.8176141 0.39116523
2.3215444 3.8082619 0.54762971
2.3193071 3.8045919 0.70572746
2.3273716 3.8178205 0.86912894
2.3277969 3.8185186 1.0324652
2.3248899 3.8137498 1.1967986
0.81465411 1.3804315 -0.42949209
0.95461142 1.6175892 -0.43363088
1.120338 1.8984129 -0.42848027
1.3812057 2.3404531 -0.43042785
1.7747172 3.0072587 -0.42874831
2.2412398 3.797781 -0.38580653
2.2456911 3.8053238 -0.23156625
2.2611194 3.8314672 -0.077655897
2.2471611 3.8078151 0.077176519
2.241025 3.7974174 0.23108512
2.2480612 3.8093398 0.38698077
2.2551711 3.8213875 0.54481959
2.2424247 3.7997892 0.69881123
2.2445292 3.8033552 0.8584342
2.2541418 3.8196437 1.0239407
2.2463067 3.8063669 1.1842706
0.80103427 1.402843 -0.43285334
0.93080759 1.6301137 -0.43337244
1.0070364 1.7636125 -0.39476141
1.0046823 1.7594898 -0.32090652
1.0086776 1.7664866 -0.24976605
1.0054861 1.7608975 -0.1774047
1.0101587 1.7690805 -0.10676346
1.0077873 1.7649276 -0.035475429
1.0072418 1.7639723 0.035456229
1.0090634 1.7671622 0.10664769
1.0153395 1.7781537 0.17914321
1.0093572 1.7676769 0.24993435
1.0157293 1.7788361 0.32443503
1.0170703 1.7811846 0.39869469
1.0205116 1.7872115 0.4751375
1.0110396 1.7706232 0.54633355
0.78644812 1.4242572 -0.4359428
0.90861183 1.6454957 -0.43395978
0.93298632 1.6896377 -0.37517554
0.93070966 1.6855147 -0.30495358
0.93494058 1.6931769 -0.23748422
0.93297982 1.689626 -0.16886164
0.92514038 1.6754287 -0.10030218
0.9346801 1.6927052 -0.033751372
0.92845756 1.6814362 0.033526678
0.93554384 1.6942694 0.10143011
0.93767536 1.6981297 0.1697115
0.94310611 1.7079647 0.23955834
0.93501323 1.6933085 0.30636367
0.93877578 1.7001225 0.37750363
0.93666726 1.696304 0.44735923
0.94242907 1.7067385 0.52240592
0.76430529 1.432222 -0.4349876
0.87331885 1.6365011 -0.42824715
0.88885623 1.6656163 -0.36697912
0.89250362 1.6724511 -0.30024797
0.89535892 1.6778016 -0.23350625
0.89366817 1.6746334 -0.16606788
0.88856137 1.6650639 -0.098910131
0.88371938 1.6559905 -0.032763738
0.90120035 1.6887479 0.033411842
0.8858223 1.6599311 0.09860523
0.8916412 1.670835 0.16569123
0.89025664 1.6682405 0.23217559
0.89113915 1.6698942 0.29978895
0.88846976 1.6648921 0.36681956
0.89492661 1.6769915 0.43884289
0.89569801 1.6784371 0.50976688
0.73437113 1.4248574 -0.42951441
0.85556227 1.6599975 -0.43114704
0.86642241 1.6810687 -0.36761364
0.87388515 1.6955482 -0.30211797
0.87664628 1.7009054 -0.2349513
0.87398636 1.6957446 -0.16690376
0.86895359 1.6859797 -0.099403583
0.86757213 1.6832994 -0.03305497
0.87075698 1.6894788 0.033176314
0.8671506 1.6824815 0.099197336
0.87169093 1.6912909 0.16646542
0.86527616 1.6788447 0.23190399
0.86573917 1.6797431 0.29930177
0.87874645 1.7049804 0.37284261
0.87051231 1.6890041 0.43868089
0.87516958 1.6980402 0.51186371
0.71844572 1.4443536 -0.43224728
0.83466703 1.6780033 -0.43267637
0.84916437 1.7071486 -0.37062088
0.85337925 1.7156222 -0.30348727
0.84751934 1.7038416 -0.23365726
0.85244131 1.7137365 -0.16745655
0.85584933 1.720588 -0.10071147
0.84920782 1.7072359 -0.033282913
0.84712684 1.7030524 0.033201355
0.85857975 1.7260771 0.10103277
0.85963482 1.7281983 0.16886967
0.85275429 1.7143657 0.23510049
0.84969103 1.7082075 0.30217561
0.85421842 1.7173092 0.37282676
0.85410666 1.7170845 0.44275355
0.83983564 1.6883943 0.50528061
0.69814503 1.4554147 -0.43252262
0.81112862 1.6909502 -0.43297675
0.83263761 1.7357898 -0.37421316
0.8333506 1.7372761 -0.30517647
0.82699883 1.7240347 -0.23477909
0.8319028 1.7342579 -0.16828102
0.83733732 1.7455871 -0.10146283
0.83117163 1.7327336 -0.033544626
0.83652884 1.7439017 0.033760834
0.82750636 1.7250926 0.10027158
0.83548307 1.7417216 0.16900524
0.83052599 1.7313877 0.23578043
0.83620304 1.7432225 0.30622104
0.83116949 1.7327291 0.37355331
0.83534324 1.7414302 0.44590241
0.83731014 1.7455305 0.51873976
0.68329656 1.4783533 -0.43638834
0.79173326 1.7129626 -0.4356668
0.8119911 1.7567916 -0.37619671
0.81750083 1.7687124 -0.30861157
0.81362772 1.7603326 -0.23811184
0.81644261 1.7664227 -0.17025071
0.81275803 1.758451 -0.10152395
0.80908716 1.7505089 -0.033661097
0.81874448 1.771403 0.034062877
0.8122527 1.7573577 0.10146083
0.81135559 1.7554168 0.16918993
0.81208813 1.7570016 0.23766127
0.80906659 1.7504644 0.30542758
0.81204909 1.7569171 0.37622356
0.81451684 1.7622563 0.44820392
0.81037843 1.7533026 0.51754934
0.65763104 1.4780084 -0.43346357
0.76076019 1.7097884 -0.43204573
0.79283321 1.7818717 -0.37909842
0.79138786 1.7786232 -0.3083328
0.79034525 1.7762802 -0.23871432
0.78752756 1.7699474 -0.16948661
0.79286611 1.7819456 -0.10221472
0.79930466 1.7964162 -0.034320347
0.7918992 1.7797725 0.034002375
0.78796422 1.7709287 0.10158278
0.79142511 1.778707 0.17032541
0.78907734 1.7734305 0.23833136
0.7914046 1.7786609 0.30833936
0.79377478 1.7839879 0.37954864
0.79068774 1.7770498 0.44904196
0.79234278 1.7807693 0.52225596
0.6355269 1.4852042 -0.43286178
0.73961604 1.7284569 -0.4340435
0.77646649 1.8145751 -0.38365233
0.77161992 1.8032489 -0.31065533
0.7677871 1.7942917 -0.23963346
0.76609439 1.7903358 -0.17037149
0.76613706 1.7904357 -0.10206225
0.76781487 1.7943566 -0.034067549
0.76517278 1.7881821 0.033950318
0.77684575 1.8154614 0.10348882
0.773422 1.8074603 0.17200108
0.76937687 1.7980069 0.24012963
0.76931357 1.7978591 0.3097268
0.76655191 1.7914051 0.37875354
0.76923817 1.7976828 0.45142725
0.76710206 1.7926909 0.52247852
0.61886334 1.5054785 -0.43614435
0.70846903 1.7234578 -0.43019763
0.74987704 1.8241891 -0.38337639
0.74970973 1.8237821 -0.31231204
0.7489019 1.8218169 -0.24185315
0.75238246 1.8302839 -0.17313047
0.7519545 1.8292428 -0.10365026
0.74426705 1.8105419 -0.034169082
0.74449962 1.8111078 0.034179762
0.74771327 1.8189253 0.10306564
0.75116712 1.8273274 0.1728508
0.7511732 1.8273423 0.24258666
0.74882048 1.8216188 0.31194156
0.74895179 1.8219383 0.38290337
0.75069743 1.8261847 0.4558396
0.74923766 1.8226337 0.52802575
0.59180766 1.5003748 -0.43216747
0.69088835 1.7515682 -0.43470138
0.71751976 1.8190852 -0.38010642
0.71788085 1.8200005 -0.30987313
0.71642727 1.8163155 -0.23973693
0.71692836 1.8175859 -0.17094114
0.7148174 1.8122342 -0.10209629
0.71415544 1.8105558 -0.033972953
0.72415632 1.8359106 0.034448702
0.71512181 1.8130058 0.10213976
0.72152305 1.8292345 0.17203669
0.72215885 1.8308464 0.24165489
0.7203685 1.8263074 0.31094694
0.71992826 1.8251914 0.38138232
0.72351956 1.8342962 0.45523268
0.71551704 1.8140079 0.52250624
0.5681116 1.5029711 -0.43052897
0.66340506 1.7550752 -0.4331708
0.66452974 1.7580507 -0.36532801
0.66944861 1.7710638 -0.29987901
0.67074996 1.7745068 -0.23292749
0.67359382 1.7820302 -0.16667335
0.66971385 1.7717657 -0.099266194
0.67281127 1.77996 -0.033214755
0.67218256 1.7782967 0.033183716
0.6674695 1.765828 0.098933525
0.67107069 1.7753552 0.16604905
0.66817635 1.767698 0.23203376
0.67153001 1.7765703 0.30081138
0.67306918 1.7806423 0.37002262
0.67444932 1.7842937 0.44038218
0.67065668 1.7742599 0.50824016
0.55526859 1.5350707 -0.43740249
0.63277203 1.7493331 -0.42947417
0.64950949 1.7956048 -0.37116197
0.64682126 1.7881732 -0.3011775
0.64147407 1.7733904 -0.23155202
0.65081722 1.7992202 -0.16739272
0.64494306 1.7829808 -0.099367157
0.64686447 1.7882925 -0.033194069
0.64751476 1.7900903 0.03322744
0.64669293 1.7878183 0.099636756
0.6467725 1.7880383 0.16635239
0.64558065 1.7847433 0.23303436
0.64093554 1.7719017 0.29843694
0.64429885 1.7811998 0.36818436
0.6428588 1.7772187 0.4363203
0.64334905 1.778574 0.50678623
0.52886355 1.5301926 -0.43381113
0.61522108 1.7800561 -0.43481043
0.62543464 1.8096075 -0.37216783
0.62937039 1.8209951 -0.3051571
0.62517011 1.8088422 -0.23498851
0.62600034 1.8112442 -0.16766058
0.62409467 1.8057305 -0.10012692
0.62363565 1.8044025 -0.033323996
0.62281024 1.8020142 0.033279888
0.62383312 1.8049738 0.10008497
0.6213035 1.7976545 0.16640264
0.62313676 1.8029588 0.2342242
0.62350732 1.804031 0.30231431
0.62127125 1.7975614 0.36969039
0.62391758 1.805218 0.44095668
0.62456185 1.8070823 0.51230967
0.51021755 1.5476398 -0.43664235
0.58870494 1.7857153 -0.43409002
0.60626388 1.8389767 -0.37638474
0.60893291 1.8470726 -0.30803493
0.60748345 1.842676 -0.23822989
0.6088444 1.8468041 -0.17012814
0.60546988 1.8365684 -0.10134594
0.60023749 1.8206968 -0.033462826
0.60454869 1.8337741 0.033703174
0.60709548 1.8414992 0.10161804
0.6005612 1.8216789 0.16781358
0.60008669 1.8202394 0.23532918
0.60220438 1.826663 0.30463123
0.60183358 1.8255384 0.37363431
0.60301757 1.8291296 0.44464362
0.60382944 1.8315924 0.5167551
0.48412094 1.5423759 -0.4331578
0.56741494 1.8077449 -0.43742609
0.5819996 1.8542106 -0.37775895
0.58062851 1.8498423 -0.3070794
0.5860613 1.8671509 -0.24028499
0.57994968 1.8476796 -0.16942672
0.58669537 1.8691709 -0.10267111
0.57564181 1.833955 -0.03355163
0.58157486 1.8528574 0.033897441
0.58064801 1.8499045 0.10161283
0.58193862 1.8540162 0.17000778
0.58204037 1.8543406 0.23863642
0.58169335 1.8532349 0.30764258
0.58114719 1.8514948 0.37720567
0.58020055 1.8484789 0.44728267
0.57890803 1.8443611 0.51796669
0.46301055 1.5525457 -0.4341082
0.53616327 1.797838 -0.43312755
0.6359784 2.1325336 -0.43256292
0.78022575 2.6162171 -0.43240178
0.81050462 2.7177467 -0.34822017
0.8120361 2.722882 -0.24858892
0.81018412 2.7166722 -0.14857103
0.81009269 2.7163656 -0.049477853
0.81114221 2.7198846 0.049541954
0.80903155 2.7128074 0.14835969
0.81105089 2.7195785 0.24828732
0.8078258 2.7087643 0.34706926
0.81157273 2.7213283 0.44977427
0.81117344 2.7199895 0.55172241
0.81517094 2.7333939 0.65851772
0.81339198 2.7274287 0.76261789
0.44405508 1.5707285 -0.4373703
0.50959569 1.8025613 -0.43246388
0.60788292 2.1502266 -0.43434238
0.74031067 2.6186552 -0.4310092
0.77739125 2.7498181 -0.35086775
0.78262401 2.7683275 -0.25168943
0.77840555 2.7534058 -0.14995527
0.77752405 2.7502875 -0.04988791
0.78121781 2.7633533 0.050124913
0.77950281 2.757287 0.15016665
0.77917564 2.7561297 0.25058043
0.77725267 2.7493277 0.35080519
0.77898097 2.7554412 0.45352307
0.78140283 2.7640078 0.55832523
0.78221786 2.7668908 0.66382229
0.77885705 2.7550027 0.76713222
0.41928795 1.5685381 -0.43504468
0.48566657 1.8168576 -0.43418154
0.5793426 2.1672955 -0.43607059
0.70900249 2.6523473 -0.43483981
0.74428642 2.7843432 -0.35387745
0.74542636 2.7886076 -0.25253734
0.74563789 2.7893989 -0.15131876
0.75052297 2.8076737 -0.05072879
0.74664736 2.7931752 0.050466835
0.74544954 2.7886944 0.15128054
0.74274266 2.778568 0.25162813
0.74648529 2.7925692 0.35492295
0.74579465 2.7899854 0.45740491
0.74131596 2.7732308 0.55798775
0.74683183 2.7938654 0.66766095
0.74332964 2.7807639 0.77126372
0.3930279 1.559427 -0.43091327
0.45705181 1.8134563 -0.43176115
0.54360092 2.1568594 -0.43236098
0.67009652 2.6587594 -0.43427408
0.71177858 2.8241422 -0.35760427
0.71259898 2.8273973 -0.25510034
0.71219456 2.825793 -0.15272442
0.71265262 2.8276103 -0.050899487
0.71219766 2.8258052 0.050866991
0.7133556 2.8303995 0.15297338
0.71482021 2.8362107 0.2558955
0.71067733 2.819773 0.35705101
0.71060759 2.8194962 0.46052837
0.7080369 2.8092966 0.56314754
0.71333927 2.8303349 0.67386711
0.70653421 2.8033342 0.77463955
0.37268317 1.5733951 -0.43325463
0.43839967 1.8508375 -0.43912211
0.51410747 2.1704607 -0.43356794
0.63213199 2.6687374 -0.43438148
0.67836946 2.8639429 -0.36137745
0.67693478 2.8578858 -0.25695059
0.67543215 2.851542 -0.15357782
0.67582899 2.8532171 -0.051181059
0.67667019 2.8567688 0.051244769
0.67436683 2.8470442 0.15333559
0.67414582 2.8461113 0.25589195
0.67876107 2.8655961 0.36158606
0.67577112 2.852973 0.46436891
0.67631531 2.8552706 0.57036448
0.67477995 2.8487885 0.67589188
0.67667407 2.8567851 0.78665251
0.3517482 1.5858791 -0.43526128
0.40837333 1.8411771 -0.43539873
0.48621061 2.1921115 -0.43645793
0.59452343 2.6804466 -0.43485773
0.64208263 2.89487 -0.36408296
0.64101362 2.8900506 -0.25899106
0.64176661 2.8934455 -0.15532401
0.64319581 2.8998892 -0.051847808
0.6431573 2.8997154 0.051844701
0.64304864 2.8992255 0.15563428
0.64164782 2.8929098 0.25924727
0.63651872 2.8697851 0.36092806
0.63910514 2.8814459 0.46746653
0.64049006 2.8876898 0.57495034
0.63987231 2.8849049 0.6822179
0.64167625 2.893038 0.79402488
0.32975256 1.5943165 -0.43623689
0.38279864 1.8507884 -0.43633118
0.45179176 2.1843624 -0.43358311
0.55559677 2.6862478 -0.43446422
0.60606307 2.9302468 -0.36740357
0.60579264 2.9289391 -0.26167217
0.60754633 2.937418 -0.15720159
0.60612565 2.9305491 -0.052235518
0.60498947 2.9250557 0.052137602
0.60632879 2.9315314 0.15688656
0.60877079 2.9433382 0.26295859
0.60569811 2.9284823 0.36718234
0.60648072 2.9322658 0.47425428
0.60645759 2.9321542 0.5820154
0.60556185 2.9278233 0.6902467
0.60359824 2.9183295 0.79851335
0.30624545 1.5954576 -0.43530515
0.35236153 1.8357102 -0.43154323
0.42187166 2.1978397 -0.43501511
0.51874495 2.7025239 -0.4358511
0.56759059 2.9569967 -0.36970106
0.57109314 2.9752438 -0.2650516
0.56810415 2.9596722 -0.15794121
0.56758809 2.9569836 -0.052556504
0.56861085 2.962312 0.052651212
0.56948149 2.9668479 0.15832414
0.56865454 2.9625394 0.26391983
0.57019317 2.9705553 0.37139624
0.56968337 2.9678996 0.47864971
0.56720746 2.9550004 0.58487886
0.56691337 2.9534686 0.69430858
0.56864542 2.962492 0.8082872
0.2841413 1.6039754 -0.43647477
0.32834449 1.8535019 -0.43457639
0.38958794 2.1992207 -0.43414029
0.47703514 2.6928594 -0.43314689
0.53311682 3.0094402 -0.37526536
0.53171313 3.0015163 -0.2666868
0.53159171 3.0008309 -0.15971522
0.5322327 3.0044494 -0.053259287
0.531241 2.9988511 0.053160053
0.52828526 2.9821661 0.1587218
0.53227913 3.0047116 0.26697069
0.53238505 3.0053096 0.37475029
0.53247857 3.0058372 0.48348942
0.53351808 3.0117052 0.59452993
0.52971804 2.9902542 0.70110196
0.53285539 3.0079644 0.81852907
0.25936726 1.5968641 -0.433485
0.30130872 1.855088 -0.43389264
0.35960901 2.2140293 -0.43600285
0.43672058 2.6887875 -0.43144223
0.49145141 3.0257525 -0.37638375
0.49375007 3.0399048 -0.26944211
0.49421704 3.0427799 -0.16155484
0.49463895 3.0453775 -0.053853795
0.49658191 3.0573397 0.054065332
0.49521264 3.0489094 0.1618803
0.49353942 3.0386078 0.26932716
0.49417552 3.0425241 0.37847003
0.49349385 3.0383272 0.48752934
0.49316105 3.0362782 0.59792614
0.49382871 3.0403891 0.71112663
0.4931241 3.0360508 0.82416689
0.23852965 1.6142404 -0.43723038
0.27543145 1.8639719 -0.43500391
0.32782891 2.2185698 -0.43592829
0.401676 2.7183273 -0.43521506
0.45518494 3.0804467 -0.38233772
0.45440614 3.0751762 -0.27196404
0.45460773 3.0765405 -0.16298518
0.45455161 3.0761609 -0.054277547
0.45353121 3.0692554 0.0541557
0.45615691 3.0870247 0.16354059
0.45489562 3.0784888 0.272257
0.45527446 3.0810528 0.38241294
0.45480153 3.0778522 0.49277645
0.45463771 3.0767436 0.60455143
0.45475587 3.0775433 0.71822071
0.4540357 3.0726695 0.83225799
0.21335866 1.6021434 -0.43308228
0.24917844 1.8711197 -0.43579501
0.29608747 2.2233672 -0.43599352
0.36498225 2.7407086 -0.43791717
0.41479075 3.1147285 -0.38581628
0.41678864 3.1297307 -0.27623287
0.41527942 3.118398 -0.16487086
0.41689256 3.1305113 -0.055125602
0.41622737 3.1255164 0.055037644
0.41547194 3.1198435 0.16494729
0.41639596 3.1267822 0.27597263
0.41583097 3.1225398 0.38678384
0.41550252 3.1200733 0.49853298
0.41612446 3.1247435 0.61274987
0.41712877 3.1322849 0.72952795
0.41437978 3.1116424 0.84112144
0.19075859 1.6079972 -0.43388212
0.22293064 1.879191 -0.43688694
0.26227283 2.2108257 -0.43275371
0.32377911 2.7292922 -0.43530792
0.37549379 3.1652205 -0.39136478
0.37575075 3.1673863 -0.27905309
0.37563169 3.1663826 -0.16710645
0.37520054 3.1627483 -0.055593003
0.37606999 3.1700776 0.055721834
0.37499833 3.1610439 0.16682468
0.3763141 3.1721351 0.27947149
0.3753216 3.163769 0.39118531
0.37436426 3.155699 0.50331759
0.37555549 3.1657405 0.61967158
0.37380785 3.1510086 0.73256761
0.3764354 3.1731575 0.85620564
0.16817442 1.6148742 -0.43504366
0.1967959 1.8897084 -0.43863228
0.23055562 2.2138822 -0.43266171
0.2850078 2.7367525 -0.43580255
0.33292231 3.1968458 -0.39464548
0.33385202 3.2057731 -0.28198516
0.33425063 3.2096007 -0.16911748
0.33604994 3.2268784 -0.0566299
0.33559665 3.2225256 0.056553509
0.33274275 3.1951215 0.16835454
0.33365119 3.2038445 0.28181553
0.33300832 3.1976717 0.39474744
0.33278647 3.1955414 0.50886041
0.33439153 3.2109537 0.62752062
0.33191189 3.1871431 0.73978812
0.33346862 3.2020915 0.86263651
0.14593257 1.6270099 -0.4377054
0.1673965 1.8663125 -0.43260121
0.20067106 2.2372923 -0.4366307
0.2464678 2.7478826 -0.43696833
0.29057026 3.2395833 -0.39936703
0.29139289 3.2487547 -0.28536978
0.29133561 3.2481163 -0.17090966
0.29017013 3.2351222 -0.056695879
0.29084727 3.2426717 0.056828178
0.29105189 3.2449529 0.17074321
0.29027918 3.2363379 0.28427911
0.29154474 3.2504475 0.40070635
0.29132789 3.2480299 0.51650178
0.29126129 3.2472873 0.63374168
0.29087359 3.242965 0.75170189
0.2897242 3.2301502 0.86898935
0.12235795 1.6252934 -0.43672776
0.14158794 1.8807274 -0.43542817
0.16820669 2.2343071 -0.43553361
0.20585532 2.7343979 -0.43431097
0.24794799 3.293519 -0.40553704
0.24794854 3.2935264 -0.2889612
0.24790838 3.2929928 -0.17306656
0.24773125 3.2906399 -0.057600789
0.24704683 3.2815487 0.057441652
0.24832241 3.2984924 0.17335558
0.24771863 3.2904725 0.28869325
0.24808253 3.2953062 0.40575707
0.24694489 3.2801948 0.52100122
0.24863622 3.3026607 0.64378792
0.24763395 3.2893476 0.76155353
0.2479184 3.2931259 0.88488609
0.098277017 1.6136243 -0.43316984
0.11462101 1.8819788 -0.43529347
0.1364941 2.2411163 -0.4364354
0.16739266 2.7484441 -0.43611673
0.20267251 3.327709 -0.40934777
0.20269297 3.3280449 -0.29170528
0.20281047 3.3299742 -0.17483966
0.20339642 3.3395948 -0.058400776
0.2021503 3.3191347 0.058042977
0.20354907 3.3421016 0.1754764
0.20245667 3.3241649 0.29136521
0.20312624 3.3351588 0.41026419
0.20322841 3.3368363 0.52948147
0.20326528 3.3374417 0.64993405
0.20272057 3.3284979 0.769867
0.20249927 3.3248646 0.89254421
0.075867273 1.6297852 -0.43717185
0.087849982 1.8871983 -0.43616521
0.10433035 2.2412305 -0.43612218
0.12783128 2.7460787 -0.43540648
0.15682933 3.3690166 -0.41411057
0.15716599 3.3762488 -0.29570293
0.15723857 3.3778081 -0.17721485
0.15720065 3.3769934 -0.059009384
0.15797698 3.3936706 0.059300799
0.15684295 3.3693089 0.17676896
0.15726155 3.3783016 0.29588273
0.15755604 3.3846278 0.41602945
0.1577812 3.3894646 0.53741902
0.15704121 3.3735681 0.65646434
0.15675884 3.3675027 0.77828991
0.15748931 3.3831942 0.90750444
0.036661375 1.1380024 -0.30508456
0.036762968 1.141156 -0.2635929
0.03638031 1.1292779 -0.21962294
0.036880426 1.144802 -0.18141261
0.036821086 1.14296 -0.14041044
0.037025031 1.1492907 -0.10060192
0.037521753 1.1647093 -0.061071407
0.036987085 1.1481127 -0.020050749
0.036889497 1.1450835 0.019997848
0.037071865 1.1507444 0.060339157
0.0375489 1.1655519 0.10202533
0.036581784 1.1355319 0.13949791
0.036364883 1.1287991 0.17887668
0.036418952 1.1304774 0.2198562
0.036456279 1.131636 0.2613939
0.036675885 1.1384529 0.30520532
0.020059163 1.1210095 -0.30042118
0.02020311 1.129054 -0.26070398
0.020095864 1.1230605 -0.21833545
0.020284902 1.1336249 -0.17957702
0.020165 1.1269242 -0.13839082
0.020207018 1.1292723 -0.098814197
0.020091536 1.1228186 -0.05885376
0.019839257 1.1087199 -0.019355847
0.020084767 1.1224403 0.019595375
0.020282177 1.1334726 0.059412204
0.020265393 1.1325346 0.099099651
0.020154275 1.1263248 0.13831721
0.020081518 1.1222587 0.1777765
0.019924127 1.1134629 0.21646959
0.020125179 1.1246986 0.25969833
0.020357672 1.1376916 0.30489188
0.0040054917 1.1190203 -0.29984206
0.0040017711 1.117981 -0.25810748
0.0039610229 1.1065969 -0.21510172
0.0039841733 1.1130645 -0.17629297
0.003986849 1.1138121 -0.13675961
0.0040581427 1.1337296 -0.099188969
0.0040332531 1.1267761 -0.059052121
0.00397556 1.1106582 -0.019386707
0.0040035476 1.1184772 0.019523188
0.0039524506 1.1042022 0.057869069
0.0039986344 1.1171045 0.097734466
0.0039724638 1.1097933 0.13626616
0.0039897459 1.1146214 0.17653954
0.0039762133 1.1108408 0.21592663
0.0039901873 1.1147448 0.25736037
0.0040122624 1.120912 0.30034891
-0.011811203 1.1004109 -0.29487073
-0.011913386 1.109931 -0.25626212
-0.011815241 1.1007872 -0.21398334
-0.011798945 1.0992689 -0.17411685
-0.011768986 1.0964777 -0.13463809
-0.011900894 1.1087672 -0.097010002
-0.011745167 1.0942585 -0.057350881
-0.011915754 1.1101515 -0.019378856
-0.011733308 1.0931537 0.019082138
-0.011676653 1.0878754 0.057016332
-0.011693611 1.0894552 0.095320329
-0.011773707 1.0969176 0.1346921
-0.011749303 1.094644 0.17338429
-0.011761344 1.0957657 0.21300723
-0.011698526 1.0899132 0.25164041
-0.011813289 1.1006052 0.29492283
-0.0272427 1.0875001 -0.29148573
-0.026912423 1.0743158 -0.24810277
-0.026998214 1.0777404 -0.20955692
-0.027045701 1.0796361 -0.17105095
-0.027103979 1.0819626 -0.13288978
-0.027231388 1.0870485 -0.095134117
-0.027283331 1.0891221 -0.057096288
-0.027088184 1.081332 -0.018880613
-0.02696619 1.0764621 0.018795583
-0.027122315 1.0826945 0.056759331
-0.027069425 1.0805831 0.09456829
-0.026886467 1.0732796 0.13182332
-0.02688336 1.0731556 0.17002422
-0.027376283 1.0928326 0.21249147
-0.027239688 1.0873798 0.25111979
-0.026876226 1.0728709 0.28756464
-0.041927658 1.0647391 -0.28551668
-0.042076591 1.0685214 -0.2468784
-0.042062096 1.0681533 -0.20778856
-0.041786551 1.0611558 -0.16820057
-0.04197485 1.0659376 -0.13098192
-0.041481189 1.0534012 -0.092231959
-0.042141333 1.0701654 -0.056128375
-0.0419682 1.0657687 -0.018617453
-0.041675899 1.0583459 0.018487785
-0.041918822 1.0645148 0.05583201
-0.041563619 1.0554945 0.092415243
-0.041990597 1.0663375 0.13103107
-0.042076446 1.0685177 0.16936748
-0.041814435 1.061864 0.20656511
-0.041586816 1.0560837 0.24400471
-0.04210227 1.0691735 0.28670573
-0.056311104 1.048193 -0.28126705
-0.056281716 1.0476459 -0.24221651
-0.056219142 1.0464811 -0.20370835
-0.056531429 1.0522943 -0.16690712
-0.056670047 1.0548745 -0.12970889
-0.056972861 1.0605112 -0.092916362
-0.05709919 1.0628626 -0.055782512
-0.056906983 1.0592848 -0.01851652
-0.05605774 1.0434768 0.018240193
-0.056637686 1.0542722 0.055331651
-0.056489978 1.0515226 0.092128828
-0.05669168 1.0552772 0.12975839
-0.057014134 1.0612794 0.16833228
-0.056489948 1.0515221 0.20468961
-0.056196474 1.0460591 0.24184966
-0.056346413 1.0488502 0.28144339
-0.07023938 1.0315987 -0.27705559
-0.070677757 1.0380372 -0.24020424
-0.071344949 1.0478361 -0.20414996
-0.070956394 1.0421294 -0.16543898
-0.071872011 1.055577 -0.12990844
-0.070286162 1.0322858 -0.090522267
-0.070526727 1.0358189 -0.054410577
-0.069966562 1.0275918 -0.017978184
-0.070585534 1.0366826 0.018137231
-0.071311921 1.047351 0.055016343
-0.069609866 1.0223531 0.089651257
-0.070249557 1.0317482 0.12697586
-0.071220316 1.0460056 0.16605434
-0.071299396 1.0471671 0.20401962
-0.071285538 1.0469635 0.24226983
-0.070216246 1.0312589 0.27696434
-0.083970033 1.018044 -0.27370998
-0.085216925 1.033161 -0.23933366
-0.085125819 1.0320566 -0.20129241
-0.084044293 1.0189443 -0.16193271
-0.082840309 1.0043472 -0.12373692
-0.084757574 1.0275921 -0.090207815
-0.084514007 1.024639 -0.053881329
-0.084804572 1.0281618 -0.018007549
-0.084229469 1.0211893 0.01788543
-0.085045636 1.0310844 0.054220267
-0.084036022 1.018844 0.089439861
-0.084568992 1.0253056 0.12631902
-0.084688917 1.0267596 0.16317475
-0.084792733 1.0280182 0.20050479
-0.084246151 1.0213915 0.23660721
-0.084147416 1.0201945 0.27428818
-0.09790948 1.0103176 -0.2719816
-0.097249351 1.0035057 -0.23276256
-0.097630709 1.0074409 -0.19674379
-0.098291025 1.0142547 -0.16139448
-0.097889677 1.0101131 -0.12460715
-0.098265037 1.0139865 -0.089127786
-0.097946979 1.0107045 -0.053216845
-0.098405212 1.015433 -0.017807456
-0.097552091 1.0066297 0.017653076
-0.098481685 1.016222 0.053507362
-0.09779568 1.0091434 0.088702075
-0.098460756 1.0160061 0.1253341
-0.096888743 0.99978465 0.15909193
-0.10051172 1.0371698 0.20254956
-0.096555144 0.9963423 0.23110099
-0.098749042 1.018981 0.27431381
-0.11120021 0.99840766 -0.2691763
-0.11123621 0.99873084 -0.23200054
-0.11057261 0.99277276 -0.19416842
-0.11059126 0.99294025 -0.15823849
-0.11273147 1.012156 -0.1250454
-0.11183847 1.0041382 -0.088393793
-0.1101403 0.9888913 -0.052145977
-0.11130263 0.99932718 -0.017551154
-0.11123943 0.99875975 0.017541187
-0.10933191 0.98163319 0.051763244
-0.1124127 1.0092939 0.088847652
-0.11164992 1.0024453 0.1238457
-0.11050756 0.99218875 0.15811872
-0.10958306 0.98388815 0.19243075
-0.11078454 0.99467552 0.23105852
-0.11084776 0.99524313 0.26832312
-0.12409518 0.98572946 -0.26620981
-0.12312319 0.97800869 -0.22757296
-0.12382717 0.98360056 -0.19270141
-0.12268831 0.97455424 -0.15557234
-0.12456106 0.98943013 -0.12244548
-0.12452127 0.98911411 -0.087219186
-0.12296718 0.97676945 -0.051594295
-0.12507586 0.99351943 -0.017478803
-0.1229765 0.97684342 0.017185425
-0.12311249 0.97792369 0.051655266
-0.1238102 0.98346579 0.08672113
-0.12400009 0.98497415 0.12189403
-0.12409101 0.98569638 0.157351
-0.12558602 0.99757177 0.19543856
-0.12530477 0.99533767 0.23160525
-0.12294289 0.97657651 0.26373792
-0.13797037 0.98228723 -0.26578629
-0.13384356 0.95290613 -0.22215487
-0.13586423 0.96729237 -0.18986796
-0.13472106 0.95915353 -0.15340596
-0.13743079 0.97844559 -0.12131712
-0.13587682 0.96738207 -0.085465617
-0.13727866 0.97736257 -0.051724117
-0.13711181 0.97617459 -0.017206425
-0.13486911 0.96020764 0.016924985
-0.1350427 0.96144348 0.050881647
-0.13757877 0.97949922 0.086536139
-0.13518907 0.96248561 0.11933824
-0.13584605 0.96716303 0.154687
-0.13708569 0.97598875 0.19157495
-0.1377234 0.98052883 0.22859468
-0.13577235 0.96663827 0.26155201
-0.14811139 0.95504266 -0.25896159
-0.14745447 0.9508068 -0.22213474
-0.14868417 0.95873606 -0.18858686
-0.14867422 0.95867187 -0.15365356
-0.14780518 0.95306826 -0.11842077
-0.14854731 0.9578535 -0.084802955
-0.14845148 0.95723563 -0.050766211
-0.14781468 0.95312947 -0.01683579
-0.15018959 0.96844327 0.017106287
-0.14938617 0.96326268 0.051085848
-0.14966565 0.96506482 0.085441411
-0.14763218 0.9519527 0.11828215
-0.15021564 0.96861124 0.15524662
-0.14985943 0.96631426 0.19007753
-0.14878795 0.95940524 0.22414358
-0.14860857 0.95824856 0.25983086
-0.1608703 0.94755644 -0.25752965
-0.1642544 0.96748936 -0.22655831
-0.16153362 0.95146352 -0.18759191
-0.16079511 0.94711351 -0.15215431
-0.16235577 0.9563061 -0.11909962
-0.16085571 0.94747049 -0.08407893
-0.16051409 0.94545829 -0.050258305
-0.16218907 0.95532417 -0.016913829
-0.158654 0.93450207 0.016545178
-0.16166012 0.95220864 0.05061714
-0.16016734 0.94341588 0.083719127
-0.16166571 0.95224154 0.11859342
-0.15998508 0.94234234 0.15138781
-0.15991594 0.94193506 0.18571328
-0.16194867 0.95390821 0.22337799
-0.16022089 0.94373131 0.25649005
-0.17385058 0.94209713 -0.2566959
-0.17282055 0.93651539 -0.21986184
-0.17336373 0.93945885 -0.18569529
-0.17637268 0.95576429 -0.15393387
-0.17561968 0.95168382 -0.11882485
-0.17511816 0.94896615 -0.084425442
-0.17442983 0.94523603 -0.05037405
-0.17249095 0.93472922 -0.016591214
-0.17418233 0.9438948 0.016753901
-0.17452505 0.94575202 0.05040155
-0.17476141 0.94703293 0.084253453
-0.17117666 0.92760706 0.11581869
-0.1714931 0.92932189 0.14967509
-0.17305569 0.93778962 0.18536533
-0.1752207 0.94952178 0.22291529
-0.17363836 0.940947 0.25638252
-0.18085983 0.90713024 -0.24784836
-0.18518227 0.92881012 -0.21865277
-0.1843352 0.9245615 -0.18325339
-0.1833826 0.91978353 -0.1485464
-0.18569721 0.93139285 -0.11661129
-0.18617561 0.93379235 -0.08330404
-0.18383938 0.92207462 -0.049274907
-0.18363035 0.92102617 -0.016392961
-0.18669394 0.93639213 0.016666453
-0.18204483 0.91307378 0.048793908
-0.1808451 0.90705633 0.080918908
-0.18159513 0.91081828 0.11403534
-0.18507838 0.928289 0.14992005
-0.18533361 0.92956913 0.18424593
-0.18249826 0.91534805 0.21548364
-0.18550779 0.93044275 0.25421786
-0.19711334 0.91979724 -0.2520543
-0.1933981 0.90246075 -0.21307966
-0.1971768 0.92009348 -0.18290846
-0.19574638 0.91341859 -0.14795579
-0.19541287 0.91186237 -0.11450452
-0.19818932 0.92481822 -0.082748048
-0.1920699 0.89626294 -0.048037544
-0.19461918 0.90815872 -0.01621186
-0.19394913 0.9050321 0.016156044
-0.19497922 0.9098388 0.048765175
-0.19643167 0.91661638 0.082014188
-0.19713379 0.91989279 0.11551292
-0.19732791 0.9207986 0.14915121
-0.1958269 0.91379434 0.18165624
-0.19794817 0.92369294 0.21809278
-0.194728 0.90866655 0.24900413
-0.20610434 0.898772 -0.24707581
-0.20400678 0.88962507 -0.21071689
-0.20506391 0.89423496 -0.17833319
-0.20546633 0.89598984 -0.14559413
-0.2109953 0.92010033 -0.11590634
-0.20925206 0.91249847 -0.081905343
-0.20525691 0.89507657 -0.048126493
-0.20944121 0.91332334 -0.016355895
-0.20817827 0.90781593 0.016257267
-0.20872353 0.91019368 0.04893931
-0.20643891 0.900231 0.080804214
-0.20654693 0.90070206 0.11346272
-0.20778009 0.90607953 0.14723366
-0.20880686 0.91055709 0.18158823
-0.20777798 0.90607035 0.21461214
-0.20729877 0.90398067 0.24850769
-0.21878168 0.89505613 -0.24688989
-0.21754624 0.89000183 -0.21152201
-0.22063844 0.90265232 -0.18062313
-0.21718402 0.88851994 -0.14487061
-0.2184488 0.89369428 -0.11296225
-0.2158649 0.88312328 -0.079537824
-0.21786983 0.89132571 -0.048087563
-0.21928267 0.89710569 -0.016120024
-0.21860696 0.89434135 0.016070351
-0.21860717 0.89434218 0.048250306
-0.21793468 0.89159095 0.080300465
-0.2173239 0.88909215 0.11238055
-0.21958418 0.89833927 0.14647162
-0.21573061 0.8825739 0.17660539
-0.2205379 0.90224099 0.21443082
-0.22172168 0.90708393 0.2502076
-0.22740851 0.87580889 -0.2424538
-0.23136523 0.8910473 -0.21253578
-0.23134176 0.89095688 -0.17892712
-0.2286419 0.88055903 -0.14409144
-0.2294021 0.88348675 -0.11207558
-0.23033616 0.88708407 -0.080183268
-0.23078729 0.88882148 -0.048125751
-0.22728346 0.87532729 -0.01578553
-0.22618918 0.871113 0.015709529
-0.23030874 0.88697851 0.048025958
-0.23112746 0.89013153 0.08045873
-0.2320514 0.89368987 0.11336991
-0.22552374 0.86855018 0.14212635
-0.22597328 0.87028146 0.17477496
-0.22623332 0.87128299 0.20782152
-0.23044008 0.88748431 0.24568595
-0.23929256 0.87018365 -0.24181995
-0.23922433 0.86993551 -0.20829552
-0.23821403 0.86626154 -0.17463452
-0.24168736 0.8788923 -0.14437
-0.24112718 0.87685519 -0.11166072
-0.2402084 0.87351412 -0.079259343
-0.24271248 0.8826201 0.015978061
-0.23841213 0.86698198 0.11040344
-0.24046069 0.87443149 0.14363725
-0.2396398 0.87144637 0.17567976
-0.23823264 0.86632925 0.20743205
-0.23927629 0.87012446 0.24180351
-0.24590307 0.84663504 -0.23622982
-0.25168714 0.86654937 -0.208326
-0.25340387 0.87246001 -0.17659721
-0.2489271 0.85704666 -0.14135234
-0.25045508 0.86230743 -0.11025339
-0.25276098 0.87024647 0.14352939
-0.24968413 0.859653 0.17400491
-0.250451 0.86229336 0.20730279
-0.2526485 0.86985928 0.24270989
-0.26339638 0.86067885 -0.24117559
-0.26150107 0.85448569 -0.20630449
-0.2599608 0.84945273 -0.17267571
-0.260822 0.85226673 0.17324774
-0.25926891 0.84719187 0.20454349
-0.26316094 0.85990947 0.24096
-0.26809248 0.83321625 -0.2345314
-0.27074257 0.84145254 0.20407254
-0.2718111 0.84477353 0.23778452
-0.27880502 0.82578421 -0.23353881
-0.28021371 0.82995653 0.23471878
-0.29002723 0.82010365 0.23308244
-0.81665909 0.34600222 -0.23765253
-0.80872917 0.34264249 -0.20277594
-0.81363279 0.34472004 0.20400544
-0.80978984 0.34309185 0.23565353
-0.85531235 0.34802583 -0.24742587
-0.84859824 0.34529385 -0.21151158
-0.8417356 0.34250146 -0.17664279
-0.84900719 0.34546027 -0.145175
-0.84368378 0.34329417 -0.11183852
-0.84449023 0.34362233 -0.079765365
-0.85165149 0.34653622 -0.048186526
-0.84959728 0.34570035 -0.016010413
-0.84226722 0.34271777 0.015872279
-0.84170258 0.34248802 0.047623616
-0.85062021 0.3461166 0.080344371
-0.85702676 0.34872341 0.11360727
-0.8485291 0.34526572 0.14509325
-0.84216028 0.34267426 0.1767319
-0.85648257 0.34850198 0.21347673
-0.85345912 0.34727174 0.24688977
-0.87600791 0.34191674 -0.25197116
-0.88403851 0.3450512 -0.21909155
-0.87971586 0.343364 -0.18356296
-0.86350602 0.33703712 -0.14681427
-0.88335484 0.34478435 -0.11643119
-0.88139659 0.34402004 -0.082777739
-0.88694525 0.34618574 -0.04989798
-0.88036668 0.34361804 -0.016495878
-0.87428653 0.34124488 0.016381951
-0.87760907 0.34254169 0.04937274
-0.8770774 0.34233421 0.082372092
-0.87083972 0.33989954 0.11478163
-0.88045645 0.34365308 0.1496962
-0.88965857 0.3472448 0.18563764
-0.87647855 0.34210044 0.21721797
-0.8804853 0.34366432 0.253259
-0.92580336 0.34616715 -0.26484179
-0.91583663 0.34244049 -0.22573423
-0.91443652 0.34191698 -0.1897672
-0.90324861 0.33773369 -0.15273379
-0.92821473 0.34706879 -0.12167674
-0.92377901 0.34541023 -0.08628498
-0.93527186 0.34970751 -0.052329786
-0.91978097 0.34391531 -0.017140411
-0.92470694 0.34575719 0.017232208
-0.92182577 0.34467989 0.051577456
-0.92065907 0.34424365 0.085993566
-0.91470468 0.34201726 0.11990575
-0.9210391 0.34438574 0.15574205
-0.91822588 0.34333384 0.19055359
-0.92418271 0.34556118 0.22779137
-0.9310599 0.34813261 0.2663455
-0.96855229 0.34643397 -0.2756241
-0.96033853 0.34349605 -0.23546705
-0.96059519 0.34358785 -0.19830532
-0.96629274 0.34562576 -0.162541
-0.96597147 0.34551084 -0.12596495
-0.97886264 0.3501218 -0.09095262
-0.97685754 0.3494046 -0.054371171
-0.9614538 0.34389496 -0.017823443
-0.95566475 0.34182432 0.017716125
-0.96794659 0.34621733 0.053875197
-0.96087492 0.34368792 0.089281268
-0.96884578 0.34653896 0.12633978
-0.95458126 0.34143677 0.16057099
-0.95817798 0.34272328 0.19780631
-0.97635299 0.34922415 0.23939367
-0.9696731 0.34683487 0.27594304
-1.012038 0.34573221 -0.28656137
-0.99787325 0.34089327 -0.24344893
-1.0138597 0.3463546 -0.2082565
-0.99820483 0.34100655 -0.16707082
-0.99765986 0.3408204 -0.1294478
-1.0029891 0.34264091 -0.092729166
-1.0094923 0.34486258 -0.055907127
-0.99407381 0.33959532 -0.018336164
-1.0112451 0.34546137 0.018652897
-1.0117438 0.34563175 0.056031819
-1.0133585 0.34618336 0.093687862
-1.0030972 0.34267789 0.1301533
-1.0087204 0.34459886 0.16883081
-1.0054152 0.34346974 0.2065219
-1.0166512 0.34730816 0.24803013
-1.0164274 0.34723175 0.28780425
-1.0537819 0.34323117 -0.29695976
-1.066649 0.34742218 -0.25898826
-1.0564651 0.34410515 -0.2159742
-1.0651839 0.34694499 -0.17743184
-1.0704222 0.34865117 -0.13822715
-1.0457972 0.34063047 -0.09622629
-1.0497909 0.34193125 -0.057861943
-1.0600724 0.34528011 -0.019460388
-1.0530322 0.342987 0.019331144
-1.0399233 0.33871725 0.057318069
-1.0577099 0.34451061 0.097322412
-1.055987 0.34394944 0.13636309
-1.0575516 0.34445906 0.1761605
-1.0665823 0.34740049 0.21804248
-1.0542451 0.34338209 0.25597653
-1.0693799 0.34831169 0.30135539
-1.1042682 0.34227368 -0.3097747
-1.1328161 0.35112223 -0.27380565
-1.1011807 0.34131667 -0.22409377
-1.1090323 0.3437503 -0.18389741
-1.1117294 0.34458628 -0.14290972
-1.1130793 0.34500471 -0.10195225
-1.1181507 0.34657663 -0.061350066
-1.1214445 0.34759754 -0.020493597
-1.1111803 0.34441611 0.020306027
-1.1048322 0.34244847 0.060619313
-1.0927268 0.33869636 0.10008807
-1.1314369 0.35069475 0.14544307
-1.1246357 0.34858668 0.18648475
-1.1254743 0.34884661 0.22903761
-1.1063805 0.34292838 0.26741609
-1.1274787 0.34946787 0.31628582
-1.1874409 0.3495065 -0.33166936
-1.1689003 0.3440493 -0.28130823
-1.1767052 0.34634659 -0.23842998
-1.1697496 0.34429932 -0.1931285
-1.1782362 0.34679723 -0.15080546
-1.1724886 0.34510547 -0.10693043
-1.1672081 0.34355122 -0.063765377
-1.1672482 0.34356308 -0.021238588
-1.1754928 0.34598973 0.0213886
-1.1692296 0.34414625 0.063875817
-1.1655716 0.34306955 0.1062996
-1.1660424 0.34320816 0.14924474
-1.1788688 0.3469834 0.19463408
-1.1766968 0.34634411 0.23842826
-1.1656728 0.34309936 0.28053153
-1.1612911 0.34180966 0.32436535
-1.2408582 0.34601042 -0.34517089
-1.2306535 0.34316489 -0.29495752
-1.2326994 0.34373534 -0.2487534
-1.2414645 0.34617946 -0.20412979
-1.2443999 0.34699801 -0.15862195
-1.233135 0.34385681 -0.11200102
-1.224964 0.34157836 -0.066646703
-1.2518348 0.3490712 -0.02268444
-1.2320265 0.3435477 0.022325495
-1.2388847 0.34546012 0.067404091
-1.2296239 0.34287775 0.11168212
-1.2407057 0.34596789 0.15815106
-1.2308834 0.34322894 0.20238997
-1.2401247 0.34580588 0.25025177
-1.2408739 0.3460148 0.29740709
-1.2386366 0.34539095 0.34455293
-1.3154414 0.34659588 -0.36450043
-1.317379 0.34710643 -0.31452048
-1.3130515 0.34596616 -0.26394176
-1.3163741 0.34684163 -0.21560852
-1.3126311 0.34585541 -0.1666712
-1.3141284 0.34624994 -0.11889503
-1.3092432 0.34496278 -0.070956178
-1.3129709 0.34594497 -0.023700129
-1.3127978 0.34589934 0.023697004
-1.3112934 0.34550297 0.071067289
-1.3134754 0.34607789 0.11883596
-1.3078759 0.3446025 0.16606741
-1.2964125 0.34158212 0.21233904
-1.2964079 0.34158093 0.26059619
-1.3102983 0.34524077 0.31283
-1.3183937 0.34737378 0.36531851
-1.3802216 0.3426165 -0.38105273
-1.3637187 0.33851993 -0.32439393
-1.3916932 0.34546411 -0.27872735
-1.3982056 0.34708071 -0.22817464
-1.3754855 0.34144083 -0.17401376
-1.3956118 0.3464368 -0.12580566
-1.3831689 0.34334812 -0.074688688
-1.3815755 0.34295255 -0.02484734
-1.3860973 0.34407502 0.024928665
-1.3862987 0.344125 0.074857682
-1.3898294 0.34500146 0.12528443
-1.3810108 0.34281239 0.17471278
-1.37604 0.34157848 0.22455741
-1.3896207 0.34494963 0.27831227
-1.3925092 0.34566668 0.33124244
-1.3888525 0.34475896 0.38343555
-1.480958 0.34519842 -0.40745825
-1.4665885 0.341849 -0.34766445
-1.4569641 0.33960566 -0.29079643
-1.4769928 0.34427419 -0.24020323
-1.4657584 0.34165555 -0.18479666
-1.4898784 0.3472777 -0.13384144
