# .PCD v0.7 - Point Cloud Data file format
VERSION 0.7
FIELDS x y z
SIZE 4 4 4
TYPE F F F
COUNT 1 1 1
WIDTH 1501
HEIGHT 1
VIEWPOINT 0 0 0 1 0 0 0
POINTS 1501
DATA ascii
5.147131 -5.2400432 1.6957554
5.1363449 -5.2290621 1.9639956
1.1381536 -1.1259998 -0.42899171
1.324613 -1.3104681 -0.43017846
1.564966 -1.5482545 -0.4279103
1.9140897 -1.8936501 -0.42645222
2.4710484 -2.4446614 -0.42679623
3.4186237 -3.382118 -0.42072535
5.2825155 -5.2261062 -0.38943243
5.2875504 -5.2310877 -0.12982897
5.2804117 -5.2240252 0.12965368
5.288084 -5.2316151 0.38984296
5.2890153 -5.2325368 0.65091187
5.2827349 -5.2263231 0.91242707
5.2758536 -5.2195153 1.175441
5.2854776 -5.2290368 1.4452138
5.2829084 -5.2264948 1.7156661
5.2836456 -5.2272243 1.9915065
1.1632884 -1.1183786 -0.43238753
1.3301101 -1.2787601 -0.42597586
1.5869489 -1.5256833 -0.42790613
1.9438576 -1.8688133 -0.42708105
2.4883492 -2.3922844 -0.42382681
3.4579847 -3.3244863 -0.41967025
5.440393 -5.2303619 -0.39551172
5.4446435 -5.2344484 -0.13183305
5.4382167 -5.2282696 0.13167742
5.4381757 -5.2282305 0.39535055
5.4295192 -5.2199078 0.65894091
5.4366236 -5.2267385 0.92599016
5.4375401 -5.2276192 1.194671
5.4339018 -5.2241211 1.4652016
5.4341159 -5.2243271 1.7403088
5.4363699 -5.2264943 2.0206671
1.1799046 -1.1022964 -0.43265489
1.3626337 -1.2730063 -0.43051225
1.6088732 -1.5030495 -0.427973
1.9710461 -1.8414004 -0.42722002
2.5173895 -2.3518078 -0.42299619
3.4986801 -3.2685542 -0.41888839
5.5997152 -5.2313933 -0.40160951
5.5917888 -5.2239885 -0.13357171
5.5851884 -5.2178221 0.13341406
5.5916848 -5.2238913 0.40103358
5.5927463 -5.2248831 0.66960579
5.5992122 -5.2309237 0.94083399
5.5968404 -5.2287078 1.2131031
5.5950193 -5.2270064 1.4883194
5.5929637 -5.2250862 1.7670481
5.5900102 -5.2223268 2.0497804
1.1886775 -1.079049 -0.43016428
1.3826876 -1.2551662 -0.43112782
1.631351 -1.4808959 -0.42826989
1.9981558 -1.8138714 -0.42742482
2.5488958 -2.3138182 -0.42268196
3.5528941 -3.2252204 -0.41980916
5.7553058 -5.2245092 -0.40736341
5.7597771 -5.2285686 -0.13578288
5.7603989 -5.2291331 0.13579755
5.7558889 -5.225039 0.40740469
5.7615371 -5.2301664 0.68078196
5.7648401 -5.2331643 0.95598018
5.7731552 -5.2407131 1.2349336
5.7653089 -5.2335901 1.5135359
5.7636108 -5.232049 1.7971181
5.7642293 -5.2326097 2.0859866
1.2163507 -1.0728203 -0.43457726
1.399556 -1.2344072 -0.43083417
1.6571289 -1.4615864 -0.42950115
2.0204358 -1.7820227 -0.42669085
2.5948684 -2.2886717 -0.42482969
3.5987115 -3.1740606 -0.41981176
5.8488035 -5.1586399 -0.4087131
5.9252415 -5.2260575 -0.13790603
5.9308143 -5.2309732 0.13803574
5.9416375 -5.240519 0.41520032
5.9233265 -5.224369 0.6909923
5.9245996 -5.225492 0.96997052
5.9238405 -5.224822 1.2510413
5.9272389 -5.2278199 1.536245
5.9363885 -5.2358894 1.827436
5.9164228 -5.2182798 2.1138172
1.2211459 -1.046361 -0.43089533
1.4080256 -1.2064923 -0.42808151
1.6777784 -1.4376348 -0.42947578
2.0506139 -1.7571058 -0.42770883
2.6375637 -2.2600443 -0.42647991
3.6253211 -3.1064222 -0.41768616
5.9128971 -5.0665736 -0.40808246
6.099432 -5.226409 -0.14020474
6.1029668 -5.2294378 0.14028598
6.0969672 -5.224297 0.42078617
6.1040449 -5.2303619 0.70326877
6.103786 -5.2301397 0.98694938
6.110177 -5.2356162 1.2744364
6.093904 -5.2216721 1.5599105
6.0978646 -5.2250662 1.8539315
6.1028991 -5.2293801 2.1534781
1.2290113 -1.0229629 -0.42846021
1.4359535 -1.1952103 -0.43132702
1.6951039 -1.4109132 -0.42869732
2.0663323 -1.7199038 -0.42580906
2.6481154 -2.2041488 -0.4230414
3.6772242 -3.0607235 -0.41857579
5.9735279 -4.972043 -0.40731353
6.2772627 -5.2248554 -0.14255878
6.2860699 -5.2321863 0.14275879
6.2833514 -5.2299237 0.42843932
6.2811022 -5.2280512 0.71497333
6.2887506 -5.2344174 1.0046397
6.2739916 -5.2221327 1.2928813
6.2872405 -5.233161 1.5900638
6.272058 -5.2205234 1.8839803
6.2782707 -5.2256947 2.1887426
1.2486633 -1.0094215 -0.43023029
1.4511092 -1.173079 -0.43079174
1.7277548 -1.3967198 -0.43185461
2.0972149 -1.695392 -0.42712858
2.6841266 -2.1698525 -0.42378926
3.7273204 -3.0131719 -0.41932592
6.0452447 -4.8869858 -0.40739229
6.4574537 -5.2202163 -0.14493924
6.4677281 -5.2285218 0.14516984
6.4725571 -5.2324257 0.43618914
6.4617753 -5.2237096 0.7269538
6.4660568 -5.2271709 1.0209076
6.4576507 -5.2203751 1.3151952
6.4594808 -5.2218547 1.6145558
6.4655833 -5.226788 1.9194419
6.4660549 -5.2271695 2.2278965
1.2687929 -0.99600857 -0.43220964
1.4619552 -1.147642 -0.42909104
1.7332538 -1.3606126 -0.4283174
2.1104183 -1.6566887 -0.42494464
2.7207434 -2.1357968 -0.42470035
3.7570992 -2.9493411 -0.41788396
6.1055617 -4.7928958 -0.40679225
6.6607609 -5.2287297 -0.14780755
6.660852 -5.2288013 0.14780957
6.6624937 -5.2300901 0.44389868
6.6577821 -5.2263913 0.74051297
6.6622686 -5.2299132 1.0399613
6.6661611 -5.2329688 1.3422691
6.6621675 -5.2298336 1.6463383
6.6639276 -5.2312155 1.9558955
6.661541 -5.2293425 2.2692297
1.2770166 -0.97325015 -0.43022156
1.4786103 -1.1268903 -0.42920125
1.7512789 -1.3346988 -0.42800689
2.1312521 -1.624287 -0.42441481
2.7326066 -2.0825961 -0.42185584
3.8052502 -2.9000878 -0.41857973
6.1598597 -4.694602 -0.40589133
6.8619256 -5.2296658 -0.15059504
6.8546529 -5.2241235 0.15043543
6.8466597 -5.2180314 0.4511466
6.8614025 -5.2292671 0.75475824
6.8539209 -5.2235651 1.0580983
6.8573828 -5.2262039 1.3655704
6.8544827 -5.2239933 1.6752133
6.8494811 -5.2201815 1.9882222
6.8663793 -5.2330599 2.3132544
1.2879463 -0.95275176 -0.42926544
1.4959188 -1.1065984 -0.42958376
1.7755051 -1.3134208 -0.42928913
2.1673691 -1.6033003 -0.4269934
2.7663751 -2.0464118 -0.42250374
3.8403494 -2.8408792 -0.41792494
6.2367759 -4.6136231 -0.40656656
7.0605359 -5.2229953 -0.15329742
7.0667562 -5.2275972 0.15343249
7.0695133 -5.2296367 0.46085152
7.0656295 -5.2267637 0.76891512
7.0567927 -5.2202268 1.0777719
7.0781641 -5.2360358 1.394469
7.0646658 -5.2260509 1.7081249
7.061367 -5.2236104 2.0278163
7.0666847 -5.2275438 2.3552873
1.3090643 -0.93968672 -0.43177685
1.5104051 -1.0842154 -0.42924327
1.7882185 -1.2836384 -0.42787686
2.173157 -1.5599592 -0.42369133
2.8004415 -2.0102432 -0.42326877
3.8801961 -2.7853246 -0.41787985
6.2904987 -4.5155139 -0.40581378
7.2724915 -5.2204189 -0.15626103
7.2807107 -5.2263188 0.15643762
7.2922707 -5.2346168 0.47044027
7.2661076 -5.215836 0.78252745
7.288383 -5.2318258 1.1015923
7.2797413 -5.2256231 1.4193007
7.2901454 -5.2330914 1.7443531
7.285964 -5.2300897 2.0706041
7.2791667 -5.2252102 2.400933
1.3170078 -0.91711479 -0.43002304
1.5315113 -1.0664871 -0.43085912
1.8088304 -1.2596017 -0.42845094
2.2083859 -1.5378373 -0.42622456
2.8240204 -1.9665419 -0.42253488
3.9183924 -2.7286217 -0.41774446
6.3544269 -4.4249845 -0.40581036
7.5037208 -5.2253098 -0.15960597
7.5117798 -5.2309217 0.15977739
7.5013618 -5.2236671 0.47905666
7.5133023 -5.2319822 0.80100209
7.5127773 -5.2316165 1.1240749
7.51227 -5.2312632 1.4498887
7.5090365 -5.2290115 1.7786375
7.4922209 -5.2173018 2.1077816
1.3379544 -0.90354455 -0.43259537
1.5474106 -1.0449941 -0.43107992
1.8217715 -1.2302749 -0.42730138
2.226891 -1.5038594 -0.42559803
2.8555865 -1.9284286 -0.42308459
3.9558611 -2.671464 -0.41761968
6.4160104 -4.3328466 -0.40574107
7.7319965 -5.2215557 -0.16285506
7.7363334 -5.2244844 0.1629464
7.7329488 -5.222199 0.48902273
7.7335124 -5.2225795 0.81642574
7.7428684 -5.2288976 1.1471858
7.7466388 -5.2314439 1.4805189
7.7386684 -5.2260613 1.8151253
7.7568531 -5.2383418 2.1609156
1.3309647 -0.87135094 -0.42625919
1.5518587 -1.015965 -0.42822406
1.8429072 -1.2065076 -0.42816439
2.2358806 -1.463778 -0.4232685
2.8934119 -1.8942481 -0.42462823
3.9986787 -2.6178401 -0.41814137
6.4702382 -4.2359114 -0.40529463
7.9861865 -5.2283669 -0.16661564
7.9815922 -5.225359 0.16651978
7.9852819 -5.2277746 0.50019675
7.9696708 -5.2175541 0.83338749
7.9763675 -5.2219386 1.1705872
7.9946299 -5.2338943 1.5134417
7.9833302 -5.2264967 1.8547748
7.9781318 -5.2230935 2.2015071
1.3534566 -0.85865706 -0.4294824
1.570246 -0.9961921 -0.42931929
1.8488243 -1.1729271 -0.42559499
2.2672434 -1.4383798 -0.42526463
2.9186296 -1.8516308 -0.42439607
4.0156879 -2.5476241 -0.4160642
6.5257154 -4.1400304 -0.4050163
8.2449455 -5.2307405 -0.17043465
8.2398691 -5.2275205 0.17032972
8.234251 -5.2239556 0.51105601
8.2286253 -5.220387 0.85256535
8.2388487 -5.2268729 1.1980057
8.233963 -5.223773 1.5444363
8.2336197 -5.2235556 1.8953599
8.246604 -5.2317929 2.2546952
1.3747038 -0.84478861 -0.43234333
1.5879859 -0.97585559 -0.43030649
1.8762051 -1.1529732 -0.4280552
2.2925925 -1.4088533 -0.42619324
2.93485 -1.8035361 -0.42295763
4.0580649 -2.4937787 -0.41671389
6.5840235 -4.046041 -0.40499938
8.511219 -5.2303491 -0.17437348
8.506958 -5.2277308 0.17428619
8.5002575 -5.2236133 0.52287161
8.4977064 -5.2220454 0.87261111
8.5200405 -5.2357707 1.2278707
8.5088968 -5.2289224 1.5818052
8.5060148 -5.2271514 1.9406428
8.5107889 -5.2300849 2.306222
1.3856634 -0.82443815 -0.43203458
1.599149 -0.95145726 -0.42959711
1.8918357 -1.1255991 -0.42790169
2.3066115 -1.3723814 -0.42510414
2.9544919 -1.7578554 -0.42211902
4.0858731 -2.4310014 -0.4159537
6.6312933 -3.9454684 -0.4043918
8.7845078 -5.2265821 -0.17842153
8.7876625 -5.2284589 0.1784856
8.7913971 -5.2306814 0.53612
8.7815924 -5.2248478 0.89399153
8.7795048 -5.2236056 1.2543598
8.7838564 -5.2261944 1.618848
8.7860909 -5.2275238 1.9872673
8.779768 -5.2237625 2.3586066
1.3972476 -0.80447996 -0.43201193
1.6081899 -0.92593229 -0.42842165
1.9043807 -1.0964671 -0.42714563
2.3339503 -1.3437964 -0.42655402
2.981952 -1.7168902 -0.422488
4.1257863 -2.3754647 -0.41651291
6.6914754 -3.8526874 -0.40465751
9.0804939 -5.2281899 -0.18289462
9.0807934 -5.2283626 0.18290065
9.0807076 -5.228313 0.54914296
9.0783548 -5.2269583 0.91649252
9.0761662 -5.225698 1.2859265
9.0731983 -5.223989 1.6582228
9.0841837 -5.2303138 2.0375493
9.0772715 -5.2263346 2.4181843
1.4008046 -0.78004915 -0.42961559
1.6317748 -0.90866667 -0.43119562
1.9250261 -1.0719659 -0.42829096
2.3407652 -1.3034737 -0.4243463
3.0041914 -1.6729077 -0.42220306
4.1648307 -2.3192189 -0.41706058
6.7438173 -3.755348 -0.40453082
9.2195101 -5.1339569 -0.18419565
9.2277145 -5.1385255 0.18435955
9.2380161 -5.1442623 0.55414641
9.2350998 -5.1426382 0.92479062
9.2275944 -5.1384592 1.2968278
9.2263355 -5.1377578 1.6725988
9.2167807 -5.1324372 2.0506029
9.2150888 -5.1314955 2.4350824
1.4077137 -0.75770789 -0.42836446
1.638728 -0.88205236 -0.42965278
1.9265728 -1.036986 -0.42528918
2.3502135 -1.2650125 -0.42273337
3.0364647 -1.63439 -0.42340761
4.185184 -2.2526932 -0.41582733
6.794064 -3.656934 -0.40436363
9.3349285 -5.0245652 -0.18504576
9.3274775 -5.0205541 0.18489805
9.3289852 -5.0213661 0.55523497
9.3283825 -5.0210414 0.92684007
9.3402176 -5.0274119 1.3024092
9.3418989 -5.0283165 1.6803291
9.3396778 -5.0271215 2.0617254
9.3417015 -5.0282106 2.4492705
1.4276218 -0.74227071 -0.43114531
1.6417032 -0.85357904 -0.42718577
1.9488429 -1.0132718 -0.42695996
2.3933809 -1.2444026 -0.4272503
3.055064 -1.5884349 -0.42278749
4.2231355 -2.1957562 -0.41643274
6.8254905 -3.5488119 -0.40316951
9.4498005 -4.9132824 -0.18590975
9.4576349 -4.917356 0.18606387
9.4537172 -4.915319 0.55841416
9.4421349 -4.909297 0.93106508
9.4543028 -4.9156232 1.3083721
9.4543447 -4.9156456 1.6877263
9.4451809 -4.9108806 2.0692863
1.443 -0.72422224 -0.43261462
1.6654928 -0.83588839 -0.4302187
1.9790987 -0.99328297 -0.43042964
2.403682 -1.2063756 -0.4259631
3.0722106 -1.5419011 -0.42206293
4.2505608 -2.1332994 -0.41608348
6.8750772 -3.4505086 -0.40313989
9.5714598 -4.8037868 -0.18693133
9.5686169 -4.8023601 0.18687582
9.5645227 -4.8003054 0.56084329
9.5738773 -4.8050003 0.93717808
9.5653563 -4.8007236 1.3140969
9.5579901 -4.7970262 1.6937977
9.5650816 -4.8005857 2.0802877
1.437726 -0.69599664 -0.42800298
1.6729245 -0.80985516 -0.42910016
1.9687351 -0.95305574 -0.42516527
2.412111 -1.1676919 -0.42445147
3.086061 -1.4939481 -0.42098489
4.286263 -2.0749605 -0.41662839
6.9167185 -3.348352 -0.40273011
9.6828451 -4.6874213 -0.18777713
9.6834269 -4.6877031 0.18778841
9.6956501 -4.6936202 0.56453502
9.6785545 -4.6853442 0.94076359
9.6887236 -4.6902671 1.3216869
9.6746511 -4.6834545 1.7024174
9.6850872 -4.6885071 2.0915778
1.4542444 -0.67847663 -0.42998534
1.6720152 -0.7800774 -0.42595932
1.9910326 -0.92891479 -0.42706549
2.4414096 -1.1390378 -0.42669445
3.110677 -1.4512839 -0.42146596
4.3128867 -2.0121741 -0.41637409
6.9675922 -3.2507248 -0.40294179
9.7924967 -4.5686817 -0.18861608
9.8070326 -4.5754638 0.18889607
9.80404 -4.5740676 0.56697601
9.8187256 -4.5809193 0.947918
9.7975397 -4.5710344 1.3274697
9.801796 -4.5730205 1.7130972
9.8070717 -4.5754819 2.1035626
1.466457 -0.65878499 -0.43076411
1.679623 -0.75454682 -0.4251025
1.9925442 -0.89512217 -0.42459804
2.4594266 -1.1048626 -0.42703569
3.1269865 -1.4047543 -0.42090833
4.3298645 -1.9451301 -0.4152827
7.0011783 -3.14518 -0.40223947
18.188702 -8.1710157 -0.34804943
18.857176 -8.4713182 0.36084101
19.331612 -8.6844521 1.1106611
19.330952 -8.6841564 1.8540558
1.4684123 -0.634565 -0.42862654
1.6994632 -0.73441219 -0.42741963
2.0112455 -0.86914694 -0.42588857
2.4580433 -1.0622277 -0.42411211
3.1391385 -1.3565587 -0.41988742
4.3548546 -1.8819226 -0.41505349
7.0667253 -3.0538402 -0.40345266
13.541324 -5.8517966 -0.25749049
13.534147 -5.8486953 0.25735405
13.539325 -5.8509326 0.77298558
13.547243 -5.8543549 1.2911638
13.517976 -5.8417068 1.8081483
13.524877 -5.8446889 2.3335893
1.4685447 -0.6098302 -0.42607367
1.7104909 -0.71030116 -0.42759237
2.0317485 -0.84370708 -0.42762911
2.4759154 -1.0281525 -0.42461309
3.1749852 -1.3184493 -0.42211473
4.3897066 -1.8228765 -0.41584581
7.0899258 -2.9441736 -0.4023301
13.530708 -5.6187835 -0.25573319
13.524473 -5.6161942 0.25561532
13.537999 -5.6218109 0.76823717
13.525407 -5.6165819 1.2812892
13.533376 -5.6198912 1.7992643
13.527913 -5.6176224 2.3200021
1.4900829 -0.59391576 -0.4298121
1.7206258 -0.68580532 -0.42762819
2.0314915 -0.80970991 -0.42509216
2.4802468 -0.98857433 -0.42288589
3.1797259 -1.267372 -0.4202902
4.4149623 -1.7597113 -0.41580966
7.1231742 -2.8391478 -0.4018696
13.526748 -5.3914781 -0.25417376
13.540495 -5.3969574 0.25443205
13.529988 -5.3927698 0.76332414
13.523815 -5.3903093 1.273699
13.52674 -5.3914747 1.7879391
13.518689 -5.3882656 2.3049574
1.4947531 -0.5711239 -0.42875734
1.7260303 -0.6594916 -0.42658168
2.0433176 -0.7807225 -0.42518485
2.490917 -0.9517439 -0.42233926
3.1990299 -1.2223037 -0.42048621
4.4236937 -1.6902304 -0.41431105
7.1608524 -2.7360597 -0.40174469
13.204104 -5.0451002 -0.24672894
13.203978 -5.0450516 0.24672657
13.200518 -5.0437298 0.74058753
13.192414 -5.0406337 1.2355654
13.197271 -5.0424895 1.7346729
13.18585 -5.0381255 2.2356834
1.5064062 -0.55100101 -0.42979366
1.7430182 -0.63754708 -0.42848092
2.059386 -0.7532655 -0.42624125
2.5211668 -0.92217195 -0.4251866
3.2229137 -1.1788512 -0.42136449
4.4514828 -1.6282274 -0.4146885
7.2059126 -2.6357203 -0.40211496
12.884292 -4.7127118 -0.23946801
12.889008 -4.7144365 0.23955566
12.882041 -4.7118883 0.71886265
12.879174 -4.7108402 1.1997901
12.867396 -4.706532 1.6822864
12.869092 -4.7071524 2.1703308
1.5125362 -0.52882493 -0.42933902
1.7518307 -0.61248899 -0.42844826
2.0597093 -0.72013199 -0.42413133
2.5364475 -0.88681304 -0.42557937
3.2410824 -1.133173 -0.42157611
4.4760089 -1.5649379 -0.4148441
7.2366304 -2.5301282 -0.40176705
12.580443 -4.3984747 -0.23262671
12.56728 -4.3938727 0.23238331
12.57764 -4.3974948 0.69829202
12.568729 -4.3943796 1.1648911
12.557782 -4.390552 1.6334238
12.560115 -4.3913674 2.1074064
1.517288 -0.5062353 -0.42858714
1.7583407 -0.58666128 -0.42794287
2.0871136 -0.69635463 -0.42767814
2.5327177 -0.84502816 -0.42288083
3.249398 -1.0841448 -0.42059624
4.4968958 -1.500366 -0.41474706
7.2588592 -2.4218807 -0.40103549
12.454637 -4.1554251 -0.2291771
12.470735 -4.1607962 0.22947332
12.470965 -4.1608729 0.68899256
12.453682 -4.1551065 1.1485984
12.457736 -4.1564589 1.6125069
12.461075 -4.1575732 2.080591
1.5279311 -0.48559728 -0.42958614
1.7610023 -0.55967045 -0.4265973
2.086436 -0.66309774 -0.42555082
2.556654 -0.81253946 -0.42489201
3.2626989 -1.0369301 -0.42035365
4.5131798 -1.43435 -0.41431296
7.2875156 -2.3160717 -0.40074617
12.480076 -3.9663379 -0.22857715
12.473045 -3.9641035 0.22844838
12.465255 -3.9616275 0.68547404
12.456851 -3.958957 1.1435474
12.466865 -3.9621391 1.6061833
12.461639 -3.9604785 2.071008
1.5271317 -0.46138582 -0.42746085
1.7592475 -0.53151399 -0.42428577
2.1073546 -0.63668615 -0.42791483
2.5607502 -0.77366865 -0.42368898
3.2718127 -0.98849893 -0.419662
4.5354071 -1.3702635 -0.41451049
7.3364329 -2.2165256 -0.40165037
12.479142 -3.7702703 -0.22754833
12.460773 -3.7647207 0.22721338
12.475893 -3.7692888 0.68302226
12.469895 -3.7674766 1.1396776
12.467882 -3.7668684 1.5992041
12.458107 -3.7639151 2.0612564
1.53465 -0.4397893 -0.42775947
1.7838172 -0.51119393 -0.42840281
2.0941985 -0.60014081 -0.42345569
2.5754893 -0.73806578 -0.42433625
3.3083613 -0.94808716 -0.42256603
4.5574589 -1.3060448 -0.41477486
7.3583817 -2.1087139 -0.40115848
15.649344 -4.4846802 -0.28415513
15.632167 -4.4797578 0.28384325
15.649597 -4.4847527 0.85317242
15.631639 -4.4796062 1.4226372
15.636708 -4.4810591 1.9972249
1.5494742 -0.42013586 -0.43017125
1.7910327 -0.48563379 -0.42842242
2.1106999 -0.57231075 -0.42509243
2.5881791 -0.70177794 -0.42472851
3.2848268 -0.89067215 -0.41788891
4.5750437 -1.2405111 -0.41471681
7.3819942 -2.0016084 -0.40084276
15.648795 -4.2431297 -0.28301337
15.634666 -4.2392988 0.28275788
15.636839 -4.2398877 0.8490814
15.634957 -4.2393775 1.4172716
15.641846 -4.2412453 1.9899234
1.5502683 -0.39662215 -0.4287717
1.7938855 -0.45894942 -0.42748967
2.1069243 -0.53903759 -0.42273483
2.5990386 -0.6649406 -0.42490524
3.3104899 -0.84695894 -0.41956848
4.5928249 -1.1750329 -0.41476157
7.3921037 -1.8912029 -0.39988086
15.642183 -4.0019112 -0.281829
15.633662 -3.9997315 0.28167549
15.64278 -4.0020642 0.84620684
15.630679 -3.9989681 1.4115506
15.628278 -3.998354 1.9807137
1.5600817 -0.37542784 -0.4299556
1.8111234 -0.4358401 -0.43006685
2.1307447 -0.51275575 -0.42599794
2.6040914 -0.62666488 -0.4242214
3.3328078 -0.80202776 -0.42089897
4.6136751 -1.1102637 -0.41516683
7.4376006 -1.7898308 -0.40091512
15.644682 -3.7648344 -0.28087431
15.625621 -3.7602475 0.28053212
15.630487 -3.7614186 0.84254313
15.630305 -3.7613747 1.4065108
15.633879 -3.7622347 1.9743963
1.5790974 -0.35617474 -0.43374684
1.8030527 -0.40668914 -0.42672437
2.1391959 -0.48250821 -0.42626312
2.6145639 -0.58973032 -0.42450887
3.3481245 -0.75518918 -0.42142504
4.6011162 -1.0378089 -0.41265771
7.4609513 -1.6828616 -0.40083438
12.458255 -2.8100328 -0.22292237
12.465977 -2.8117745 0.22306055
12.461569 -2.8107803 0.66948903
12.46691 -2.811985 1.1181127
12.47086 -2.812876 1.5696945
12.459026 -2.8102069 2.022887
1.5634233 -0.32919851 -0.42810333
1.8165337 -0.38249412 -0.42857531
2.1534326 -0.45343244 -0.42776296
2.605201 -0.548558 -0.42167062
3.3536539 -0.70615423 -0.42080569
4.6443005 -0.97791612 -0.41523284
7.4739256 -1.5737294 -0.40028024
12.483686 -2.628598 -0.22268139
12.467912 -2.6252763 0.22240001
12.448799 -2.6212518 0.66671896
12.475602 -2.6268957 1.1154058
12.451415 -2.6218028 1.5623635
12.466572 -2.6249943 2.0178049
1.5664444 -0.30648971 -0.42768553
1.8132284 -0.35477531 -0.42655373
2.1534269 -0.42133841 -0.42652014
2.6221642 -0.51305127 -0.42318428
3.3617799 -0.65776408 -0.42060089
4.6413627 -0.90812653 -0.41376564
7.5065608 -1.4687297 -0.40086111
12.463535 -2.4386089 -0.22167662
12.477841 -2.4414079 0.22193106
12.449163 -2.435797 0.66480315
12.464338 -2.438766 1.111164
12.464286 -2.4387558 1.5594387
12.455685 -2.4370728 2.0101907
12.467155 -2.439317 2.4693165
1.5734636 -0.28454447 -0.42844608
1.8232366 -0.32971331 -0.42775407
2.1574605 -0.39015418 -0.42616928
2.6370564 -0.47688413 -0.42444262
3.3662291 -0.60874736 -0.42002437
4.6582155 -0.84238964 -0.41415071
7.5195751 -1.3598367 -0.40047565
12.463768 -2.2539425 -0.2210843
12.462691 -2.2537477 0.22106519
12.457902 -2.2528815 0.6634798
12.460279 -2.2533114 1.1078134
12.465228 -2.2542064 1.5553604
12.461596 -2.2535496 2.0057335
12.453947 -2.2521665 2.4600637
1.5724173 -0.2611725 -0.42709953
1.8281109 -0.30364221 -0.42783418
2.1647885 -0.35956308 -0.4265565
2.6398954 -0.43847653 -0.42384601
3.3786123 -0.56117457 -0.42052418
4.6593046 -0.77389264 -0.41322038
7.5373826 -1.2519305 -0.40042868
9.9941635 -1.6599925 -0.17683849
9.9853392 -1.6585265 0.17668234
9.9730177 -1.6564801 0.52982348
9.9859209 -1.6586232 0.88562268
9.9842873 -1.658352 1.2427098
9.9848499 -1.6584454 1.6031084
9.9747419 -1.6567664 1.9654534
9.982933 -1.658127 2.3363132
1.5977536 -0.24193621 -0.43299642
1.8438803 -0.27920538 -0.43054533
2.1790786 -0.32996202 -0.42839777
2.6456676 -0.40061417 -0.42380866
3.3806274 -0.51190376 -0.41982001
4.6699796 -0.70714104 -0.41322714
7.5493526 -1.1431435 -0.40015435
9.8190622 -1.4868292 -0.17334589
9.82197 -1.4872694 0.17339723
9.8243303 -1.4876268 0.52073979
9.833189 -1.4889683 0.87009811
9.8197012 -1.4869258 1.2194502
9.8110075 -1.4856094 1.5716223
9.8118219 -1.4857328 1.9289633
9.8106489 -1.4855552 2.2907827
1.5950867 -0.21822818 -0.43138298
1.8354747 -0.25111631 -0.42769954
2.1749175 -0.2975564 -0.42669868
2.6496606 -0.36250731 -0.42357373
3.3821878 -0.46272635 -0.41914836
4.6829925 -0.64069301 -0.41352478
7.5803099 -1.0370829 -0.40096736
9.6599817 -1.3216085 -0.17018609
9.6593742 -1.3215255 0.17017539
9.6468678 -1.3198144 0.51027983
9.6560402 -1.3210692 0.85266244
9.6498852 -1.3202271 1.1958926
9.6574497 -1.3212621 1.5438362
9.6527157 -1.3206143 1.8937736
9.6535988 -1.3207352 2.2494669
1.5939106 -0.19487129 -0.4302665
1.8446262 -0.22552374 -0.42903584
2.1743238 -0.26583254 -0.42579213
2.655586 -0.32467157 -0.42373466
3.3976362 -0.41539451 -0.42028296
4.6847277 -0.57275409 -0.41291174
7.5707173 -0.92559487 -0.39971823
9.5099096 -1.1626801 -0.16723184
9.5128403 -1.1630385 0.16728339
9.5173798 -1.1635935 0.50249797
9.5122547 -1.1629668 0.83840984
9.5141554 -1.1631992 1.176888
9.5073109 -1.1623625 1.5170201
9.495163 -1.1608772 1.8594127
9.5082865 -1.1624818 2.2115028
1.5839446 -0.17068243 -0.426873
1.8437926 -0.19868308 -0.42813668
2.1861167 -0.23557119 -0.4273974
2.6561561 -0.28622159 -0.4231286
3.4012697 -0.36651343 -0.42004043
4.7029376 -0.5067783 -0.41383505
7.5822926 -0.81705135 -0.39967096
9.4803505 -1.0215819 -0.16643786
9.4639225 -1.0198117 0.16614947
9.4796677 -1.0215083 0.49968365
9.466856 -1.0201278 0.83303612
9.4716597 -1.0206454 1.1697043
9.4629412 -1.019706 1.507457
9.4683437 -1.0202881 1.8511114
9.4590693 -1.0192888 2.1964371
1.5952839 -0.14884071 -0.4293108
1.8474733 -0.17237011 -0.42837456
2.1638496 -0.20188816 -0.42243582
2.6775169 -0.24981356 -0.42591816
3.4082487 -0.31799117 -0.42029718
4.7067499 -0.43914193 -0.41357505
7.6064591 -0.7096861 -0.40036833
9.484169 -0.88487732 -0.16626552
9.485075 -0.88496184 0.1662814
9.4751263 -0.88403368 0.49872622
9.4767265 -0.88418299 0.8327058
9.465888 -0.88317174 1.167311
9.4510775 -0.88178986 1.5034025
9.4783049 -0.88433021 1.8503947
9.4563475 -0.8822816 2.1926482
1.5862664 -0.12512733 -0.42635846
1.8475443 -0.14573735 -0.42786354
2.1754615 -0.17160401 -0.42417979
2.6625202 -0.210024 -0.42301106
3.4058979 -0.26866287 -0.41949007
4.7095156 -0.37149441 -0.41330853
7.6122856 -0.60046971 -0.40018162
9.4791718 -0.74773276 -0.16597329
9.4705191 -0.74705023 0.16582178
9.4703474 -0.7470367 0.49786085
9.4673691 -0.74680179 0.83085918
9.4661798 -0.74670792 1.1659095
9.4659538 -0.74669009 1.5039147
9.4656496 -0.74666607 1.8456485
9.4654608 -0.74665123 2.1920588
1.5978227 -0.10305218 -0.42902416
1.8470869 -0.11912857 -0.42731896
2.171906 -0.1400779 -0.42305225
2.6676838 -0.17205328 -0.42339683
3.4209499 -0.22063546 -0.42091191
4.729393 -0.305024 -0.41462734
7.6111698 -0.49088526 -0.39971265
9.4725857 -0.61093795 -0.16568787
9.4709425 -0.61083198 0.16565913
9.4719572 -0.61089748 0.49743488
9.4712114 -0.61084932 0.83034396
9.4647598 -0.61043328 1.1645392
9.4615517 -0.61022633 1.5016738
9.4680176 -0.61064339 1.8442172
9.4643154 -0.61040461 2.1895459
1.5976961 -0.080101505 -0.42863843
1.8552841 -0.093015842 -0.42886341
2.189362 -0.10976505 -0.42610276
2.6706684 -0.13389565 -0.42352298
3.4150753 -0.17121696 -0.41984457
4.7257943 -0.2369307 -0.41397211
7.6127796 -0.38167155 -0.39946941
9.4712009 -0.47484466 -0.16552782
9.453783 -0.47397143 0.16522342
9.4856386 -0.4755685 0.49774492
9.4722557 -0.47489756 0.82975465
9.4652739 -0.47454748 1.1636474
9.45963 -0.47426456 1.5001378
9.4563599 -0.47410062 1.8404361
9.4760456 -0.47508758 2.1904621
1.6041754 -0.057423845 -0.43011218
1.8447635 -0.066036053 -0.42616934
2.1864917 -0.078268714 -0.42528248
2.6811759 -0.095976681 -0.42492792
3.4166877 -0.12230542 -0.41978458
4.7235641 -0.16908699 -0.41352236
7.6103954 -0.27242541 -0.39909881
9.475399 -0.33918598 -0.16549939
9.476532 -0.33922654 0.16551918
9.4757013 -0.3391968 0.49691775
9.451745 -0.33833924 0.8274489
9.4793234 -0.33932647 1.1646583
9.4700775 -0.33899549 1.5008713
9.4765539 -0.33922732 1.8432325
9.453021 -0.33838493 2.1837964
1.6011876 -0.034380738 -0.42913514
1.8429785 -0.039572477 -0.42558253
2.2014275 -0.047269102 -0.42801213
2.6861639 -0.057677373 -0.42554399
3.410094 -0.073221624 -0.4188028
4.7366037 -0.10170447 -0.41449404
7.620625 -0.16363025 -0.39947152
9.4867678 -0.20370011 -0.16563007
9.4746513 -0.20343994 0.16541854
9.4696617 -0.20333281 0.49639761
9.4816074 -0.20358931 0.82972318
9.4666386 -0.20326789 1.1626233
9.4696665 -0.20333289 1.5001912
9.4632273 -0.20319463 1.8398863
9.4662781 -0.20326015 2.1859629
1.6016893 -0.011462271 -0.42918169
1.8484762 -0.013228368 -0.42676464
2.2024016 -0.015761187 -0.42811382
2.6668963 -0.019085279 -0.42240506
3.4181383 -0.024461441 -0.41970474
4.7352824 -0.033887405 -0.41429353
7.626895 -0.054580834 -0.39971825
9.4720163 -0.067785196 -0.16533865
9.458909 -0.067691393 0.16510986
9.475481 -0.067809992 0.4966009
9.469656 -0.067768306 0.82850754
9.4800186 -0.067842461 1.1640279
9.4682684 -0.067758366 1.4996625
9.4529848 -0.067648999 1.8375185
9.4750719 -0.067807056 2.1875453
1.6005183 0.011453891 -0.42886794
1.8553953 0.013277884 -0.42836207
2.1959646 0.01571512 -0.42686254
2.6894882 0.019246956 -0.42598337
3.4247668 0.024508877 -0.42051864
4.7370601 0.033900127 -0.41444907
7.6341047 0.054632429 -0.40009615
9.4884996 0.067903154 -0.16562636
9.466773 0.067747667 0.16524713
9.4644527 0.06773106 0.49602291
9.4661093 0.067742921 0.82819724
9.4631214 0.067721538 1.1619532
9.4650488 0.067735329 1.4991525
9.4711494 0.06777899 1.8410493
9.475913 0.067813076 2.1877396
1.6014119 0.034385554 -0.42919528
1.843848 0.039591148 -0.42578331
2.1923206 0.047073558 -0.42624152
2.677912 0.057500191 -0.42423674
3.4157107 0.073342219 -0.4194926
4.7202854 0.10135408 -0.41306606
7.6152244 0.16351427 -0.3991884
9.4849358 0.20366076 -0.16559808
9.4750843 0.20344923 0.16542609
9.4818077 0.2035936 0.49703431
9.4710417 0.20336244 0.82879853
9.4731903 0.20340857 1.1634279
9.4578981 0.20308022 1.498327
9.4738321 0.20342234 1.841948
9.4707327 0.20335579 2.1869915
1.5987126 0.05722829 -0.42864743
1.8522298 0.066303313 -0.42789418
2.189508 0.078376688 -0.42586917
2.6781898 0.09586978 -0.4244546
3.4232454 0.12254015 -0.42059028
4.7365904 0.16955328 -0.41466275
7.6338339 0.27326441 -0.40032792
9.4667768 0.33887732 -0.1653488
9.4776812 0.33926767 0.16553925
9.4817457 0.3394132 0.49723479
9.4573469 0.33853978 0.82793939
9.4727955 0.33909279 1.1638563
9.4686861 0.33894569 1.5006509
9.472229 0.3390725 1.8423913
9.4764738 0.33922446 2.1892142
1.6002148 0.080227785 -0.42931414
1.840057 0.092252426 -0.42534354
2.1805511 0.10932332 -0.42438793
2.6539855 0.13305925 -0.42087734
3.4239948 0.17166415 -0.42094111
4.7123308 0.23625569 -0.41279271
7.6119323 0.38162905 -0.39942491
9.4695044 0.47475958 -0.16549817
9.4572029 0.47414285 0.16528317
9.4706421 0.47481665 0.49695799
9.464366 0.47450197 0.82906348
9.463048 0.4744359 1.1633738
9.4750051 0.47503537 1.5025759
9.4685202 0.47471026 1.8428028
9.4659691 0.47458237 2.1881328
1.5938144 0.10279366 -0.42794791
1.8384811 0.11857353 -0.42532802
2.1721742 0.14009519 -0.42310449
2.6700673 0.172207 -0.42377511
3.4139669 0.22018509 -0.42005274
4.7075114 0.30361271 -0.41270897
7.6145062 0.49110043 -0.39988786
9.4738235 0.61101782 -0.16570954
9.486393 0.61182845 0.16592938
9.4711609 0.6108461 0.49739307
9.465766 0.61049813 0.82986659
9.4802752 0.61143392 1.1664481
9.4732676 0.610982 1.5035334
9.4485264 0.60938627 1.8404205
9.4781704 0.61129814 2.1927512
1.5859532 0.12510262 -0.42627427
1.8435121 0.14541928 -0.42692974
2.191999 0.17290851 -0.42740434
2.6707988 0.21067704 -0.42432636
3.4173901 0.2695694 -0.42090553
4.7220941 0.37248662 -0.41441241
7.610774 0.60035044 -0.40010217
9.4889851 0.74850684 -0.1661451
9.4692583 0.74695081 0.16579971
9.4669657 0.74676996 0.49768311
9.4539528 0.74574345 0.82968169
9.4623308 0.74640429 1.1654354
9.4612856 0.74632192 1.5031731
9.4560585 0.74590951 1.8437784
9.4576674 0.74603647 2.1902537
1.6047366 0.14972267 -0.43185467
1.8481307 0.17243144 -0.428527
2.1935415 0.20465842 -0.4282324
2.6672997 0.2488603 -0.42429292
3.4196873 0.31905842 -0.42170778
4.7065654 0.4391247 -0.41355884
7.5951023 0.70862657 -0.39977059
9.4837837 0.88484138 -0.16625877
9.4860353 0.88505149 0.16629824
9.4650812 0.8830964 0.4981975
9.4604187 0.88266146 0.83127284
9.4744892 0.88397419 1.1683716
9.4692755 0.88348776 1.5062972
9.468771 0.88344067 1.8485334
9.4712706 0.88367391 2.1961083
1.597447 0.17213741 -0.43051189
1.8264796 0.19681746 -0.42411649
2.1778967 0.23468542 -0.42579037
2.6600072 0.28663659 -0.42374212
3.3932645 0.36565083 -0.41905186
4.6965384 0.50608879 -0.41327196
7.5827456 0.81710017 -0.39969483
9.4657707 1.0200108 -0.16618191
9.4716825 1.0206479 0.16628569
9.4801979 1.0215656 0.49971163
9.4886045 1.0224714 0.83494991
9.4741421 1.020913 1.170011
9.4665117 1.0200907 1.5080259
9.4600582 1.0193952 1.8494915
9.4567995 1.0190442 2.1959102
1.5912873 0.19455056 -0.42955834
1.8325522 0.22404757 -0.4262276
2.170927 0.26541722 -0.42512691
2.6512196 0.32413775 -0.42303798
3.4021015 0.41594043 -0.42083529
4.6966743 0.57421476 -0.41396478
7.5804029 0.92677897 -0.40022957
9.484683 1.159596 -0.16678825
9.4811325 1.1591619 0.16672581
9.478056 1.1587858 0.50042176
9.4766798 1.1586176 0.83527434
9.4677887 1.1575305 1.1711526
9.4739075 1.1582786 1.5116903
9.4639044 1.1570556 1.8532915
9.4527941 1.1556972 2.198596
1.5753591 0.21552919 -0.42604774
1.839385 0.25165129 -0.42861068
2.1698966 0.29686949 -0.42571366
2.6464911 0.36207366 -0.42306706
3.3861105 0.46326306 -0.41963449
4.6875215 0.64131266 -0.41392469
7.5509219 1.0330623 -0.39941284
9.4812078 1.29715 -0.16703652
9.4803123 1.2970275 0.16702074
9.4745016 1.2962325 0.50116229
9.4763594 1.2964866 0.83679593
9.4815969 1.2972032 1.175037
9.4656219 1.2950176 1.5131707
9.4598703 1.2942307 1.855939
9.4600639 1.2942573 2.2043698
1.5738415 0.23831534 -0.42651612
1.8313526 0.2773084 -0.42762011
2.1730363 0.32904705 -0.42720988
2.6519585 0.40156677 -0.42481643
3.392381 0.51368356 -0.42127961
4.6687455 0.70695412 -0.41311792
7.5491924 1.1431193 -0.40014586
9.4708328 1.4340993 -0.16719826
9.4712 1.4341549 0.16720472
9.4749079 1.4347162 0.5022186
9.470438 1.4340395 0.83799982
9.4681568 1.4336941 1.1757941
9.4680958 1.4336848 1.5166913
9.4771681 1.4350586 1.8631718
9.4597654 1.4324235 2.2088516
1.5689299 0.26059327 -0.42615229
1.834191 0.30465209 -0.42925709
2.1679902 0.3600949 -0.42718741
2.6155553 0.43443373 -0.41993809
3.3693593 0.55963767 -0.41937247
4.6765027 0.77674919 -0.41474563
7.5299592 1.2506975 -0.40003431
9.4765377 1.5740167 -0.16767952
9.4707575 1.5730566 0.16757724
9.464385 1.5719981 0.50280201
9.4663906 1.5723313 0.8395471
9.4514561 1.5698508 1.1763901
9.4792929 1.5744743 1.5219393
9.4544735 1.570352 1.8629383
9.4637251 1.5718886 2.2148027
1.5796081 0.28565565 -0.43011922
1.8140582 0.3280535 -0.42560071
2.1512489 0.38903093 -0.42494231
2.6268709 0.47504219 -0.42280322
3.3820167 0.61160243 -0.42199427
4.6545315 0.84172344 -0.41382316
7.5240517 1.3606462 -0.40071407
9.4788237 1.7141463 -0.16813686
9.4691944 1.712405 0.16796607
9.4741259 1.7132968 0.5045706
9.4713955 1.7128031 0.84207898
9.4778852 1.7139766 1.1826119
9.4675608 1.7121096 1.523834
9.484519 1.7151762 1.8735039
9.4741774 1.7133061 2.2227604
1.5657173 0.30634743 -0.42748702
1.8338414 0.35880846 -0.43140286
2.1379664 0.41831335 -0.42345792
2.621222 0.51286691 -0.42303222
3.3608735 0.65758675 -0.42048749
4.6449981 0.90883791 -0.41408974
7.4982505 1.4671038 -0.40041733
9.4709892 1.8530889 -0.16845115
9.472352 1.8533555 0.16847539
9.4707756 1.8530471 0.50575298
9.4866409 1.8561512 0.84570986
9.4629765 1.851521 1.1839372
9.4449129 1.8479867 1.52429
9.4768209 1.8542298 1.8770337
9.4580822 1.8505634 2.2249708
1.5688071 0.33033216 -0.42957756
1.8238328 0.38403103 -0.43029737
2.1420798 0.45104197 -0.42550778
2.6112006 0.54982132 -0.42264172
3.3356209 0.70235711 -0.41854295
4.6347866 0.97591287 -0.41438225
7.4775319 1.5744888 -0.40047336
9.4777164 1.995653 -0.16906154
9.4592094 1.991756 0.16873139
9.484766 1.9971374 0.50797462
9.4711733 1.9942751 0.84678888
9.4600973 1.991943 1.1870226
9.472229 1.9944974 1.5331488
9.4829407 1.9967529 1.8837136
9.4613504 1.9922069 2.2322192
1.567268 0.35350654 -0.43049756
1.8210896 0.41075751 -0.43099317
2.1533506 0.48570091 -0.42908368
2.6079602 0.5882408 -0.42343667
3.3350859 0.75224829 -0.41978389
4.63412 1.0452532 -0.4156177
7.4512739 1.6806787 -0.40031445
9.4813709 2.1385791 -0.16965535
9.4857302 2.1395624 0.16973336
9.4765701 2.1374962 0.50912207
9.4692039 2.1358347 0.84925914
9.4791489 2.138078 1.1931309
9.4783382 2.1378951 1.5389329
9.4771299 2.1376226 1.8884438
9.4674921 2.1354487 2.2406499
1.5672308 0.37714824 -0.43192589
1.7901007 0.43078107 -0.42507482
2.1216545 0.51056826 -0.42418054
2.59692 0.62493914 -0.42305315
3.3288949 0.80108619 -0.42040482
4.6115603 1.1097548 -0.41497654
7.4235044 1.7864387 -0.40015531
9.4850149 2.2825334 -0.17028771
9.4670572 2.2782121 0.16996533
9.4748936 2.280098 0.51073307
9.472662 2.2795608 0.85240829
9.4764843 2.2804806 1.1967815
9.4651957 2.2777641 1.5419346
9.4794569 2.2811961 1.8952197
9.4593019 2.2763457 2.2461927
1.5572726 0.39841413 -0.43070894
1.7871139 0.45721695 -0.42587596
2.1189985 0.54212666 -0.4251574
2.5895631 0.66251636 -0.42335612
3.323854 0.85037804 -0.42126223
4.5847259 1.1729608 -0.41403016
7.4076419 1.8951784 -0.40072143
9.4748096 2.4240444 -0.17070992
9.4717093 2.4232512 0.17065406
9.4692764 2.4226289 0.51224697
9.4662418 2.4218526 0.85486233
9.4598656 2.4202213 1.1989348
9.4657393 2.4217238 1.5475113
9.4692831 2.4226305 1.8999238
9.4732666 2.4236498 2.2575152
1.5333363 0.4157601 -0.42569098
1.7762401 0.48162282 -0.42488399
2.118782 0.57450217 -0.42672017
2.5722797 0.69746685 -0.42211938
3.3108983 0.89774132 -0.42120567
4.5773339 1.2411321 -0.41492441
7.3742995 1.999522 -0.40042496
9.468792 2.5674381 -0.1712461
9.4680319 2.5672319 0.17123234
9.4638529 2.5660987 0.51388782
9.4861279 2.5721385 0.85989487
9.4554949 2.5638328 1.2029086
9.4715071 2.5681741 1.5543048
9.4606333 2.5652258 1.9053601
9.4704142 2.567878 2.2653623
1.5434144 0.44230095 -0.43020242
1.7733245 0.508187 -0.42588288
2.1029456 0.60264748 -0.42522442
2.5633688 0.73459232 -0.42233926
3.2914531 0.94324172 -0.4204064
4.5496998 1.3038212 -0.4140687
7.3540082 2.1074605 -0.40092003
9.4802771 2.7167916 -0.17213944
9.4681597 2.7133193 0.17191942
9.4799967 2.7167113 0.51682299
9.4639072 2.7121005 0.86131126
9.4476032 2.7074285 1.2067111
9.4537601 2.7091928 1.5575966
9.4782629 2.7162144 1.9165444
9.4750547 2.7152953 2.2755361
1.5164623 0.45816234 -0.42447439
1.7685033 0.5343104 -0.42651802
2.1008668 0.63472599 -0.42659739
2.5621836 0.77410173 -0.42392614
3.2855461 0.99264812 -0.42142352
4.5341148 1.369873 -0.41439238
7.3241615 2.2128179 -0.40097854
12.620877 3.8130922 -0.23013277
12.606727 3.8088169 0.22987475
12.620159 3.8128753 0.69092041
12.614841 3.8112686 1.1529249
12.610244 3.8098795 1.6174643
12.61674 3.8118424 2.087503
1.5226023 0.48390374 -0.42808795
1.768658 0.56210363 -0.4284519
2.0991867 0.66715002 -0.42815143
2.5623245 0.81434155 -0.42583439
3.2650104 1.0376647 -0.42065147
4.5165386 1.4354173 -0.41462126
7.2894874 2.3166983 -0.40085459
11.977999 3.8067708 -0.21938141
11.9886 3.8101401 0.21957558
11.98527 3.8090818 0.65907925
11.997883 3.8130906 1.1014138
11.992855 3.8114924 1.5451137
11.991062 3.8109226 1.9928025
11.988237 3.810025 2.4451284
1.5266452 0.50935727 -0.43123028
1.7548368 0.58549219 -0.42709008
2.0864081 0.69611925 -0.42753357
2.5381105 0.84682739 -0.42378122
3.235121 1.0793813 -0.41874823
4.4902582 1.4981513 -0.41413486
7.2586107 2.421798 -0.40102181
11.421853 3.810842 -0.21017291
11.435284 3.8153231 0.21042004
11.425129 3.8119349 0.63121247
11.413666 3.8081105 1.0526782
11.426903 3.8125269 1.4790777
11.41573 3.8087995 1.9060527
11.410275 3.8069789 2.3381214
1.5143033 0.52944279 -0.42984065
1.7409474 0.60868388 -0.4257865
2.0595834 0.72008801 -0.42410544
2.5291543 0.8842631 -0.42435569
3.2378628 1.1320474 -0.42115733
4.4721088 1.5635744 -0.41448262
7.2438612 2.5326564 -0.40216851
10.907856 3.8136914 -0.20169868
10.90546 3.8128541 0.20165437
10.912292 3.8152423 0.60583436
10.900971 3.8112845 1.0103204
10.881542 3.8044915 1.4153908
10.900328 3.8110592 1.828918
10.904212 3.8124175 2.2453742
1.5100396 0.55233002 -0.4308303
1.7451327 0.63832051 -0.42900074
2.0401468 0.74622834 -0.42225924
2.5149074 0.91988248 -0.42413098
3.2222948 1.1786249 -0.42128354
4.4452305 1.6259403 -0.41410601
7.1775184 2.6253345 -0.40053046
10.421629 3.811939 -0.19369686
10.411219 3.8081312 0.19350336
10.417168 3.810307 0.58131415
10.425797 3.8134639 0.97124004
10.413658 3.8090234 1.3614841
10.419525 3.8111694 1.7572192
10.418983 3.8109713 2.1564684
1.4954871 0.57140434 -0.42896789
1.7257575 0.65938735 -0.42651424
2.0372875 0.77841854 -0.42393011
2.5057006 0.95739245 -0.42484581
3.2244241 1.2320065 -0.42382407
4.4409208 1.6968125 -0.41592446
7.1511111 2.7323375 -0.40119818
9.9706945 3.8096604 -0.18631017
9.9934177 3.8183424 0.18673478
9.9676571 3.8084998 0.55921465
9.9663382 3.8079958 0.93341994
9.9764061 3.8118427 1.3113166
9.9798298 3.8131506 1.6920972
9.9674997 3.8084395 2.0740926
1.5005565 0.59809035 -0.43283322
1.7246033 0.68739069 -0.42861673
2.0505266 0.81729692 -0.4290753
2.4812801 0.98898613 -0.42306209
3.1951094 1.2735035 -0.42232355
4.4025707 1.7547723 -0.41464263
7.1303587 2.8420112 -0.40227491
7.7702217 3.0970473 -0.146006
7.7783723 3.100296 0.14615916
7.7772832 3.0998621 0.43877262
7.8479738 3.1280377 0.73913735
7.847198 3.1277285 1.0372279
7.8467598 3.1275539 1.3378848
7.8387065 3.1243439 1.6402591
7.8450031 3.1268537 1.9497235
7.8302922 3.1209903 2.2586358
1.4830892 0.61586994 -0.4302935
1.7197642 0.71415198 -0.42991051
2.0346968 0.84493142 -0.42824969
2.4715111 1.0263237 -0.42385778
3.1693509 1.3161097 -0.42136565
4.38305 1.8201123 -0.41521525
7.0832524 2.9414024 -0.4019514
7.4676275 3.1010187 -0.1411397
7.4617419 3.0985746 0.14102846
7.4664211 3.1005177 0.42369497
7.8473248 3.2586923 0.743393
7.8441968 3.2573936 1.0428871
7.8389778 3.2552264 1.3443644
7.8525167 3.2608485 1.6527463
7.8366785 3.2542715 1.9590305
7.8522835 3.2607515 2.2782085
1.4795775 0.63938999 -0.43188566
1.7025564 0.73574889 -0.42819759
2.0019052 0.86511052 -0.42391071
2.4560211 1.0613538 -0.42376319
3.1443121 1.3587945 -0.42057943
4.3621345 1.8850687 -0.41574731
7.0474195 3.0454974 -0.40235049
7.1827197 3.1039665 -0.1365806
7.1712112 3.0989933 0.13636176
7.1684093 3.0977824 0.40925801
7.8566418 3.3951974 0.7488026
7.8508372 3.3926892 1.0501187
7.558044 3.2661605 1.3040689
7.5507064 3.2629895 1.5988896
7.5473318 3.2615314 1.8981745
7.5517621 3.2634459 2.204344
1.456272 0.65420955 -0.42777234
1.684376 0.75668198 -0.42630544
2.0080462 0.9020862 -0.42790139
2.4503851 1.1008008 -0.42546576
3.1227944 1.4028711 -0.42034405
4.3168707 1.939293 -0.41403648
6.8936028 3.0968533 -0.39605889
6.8984184 3.0990167 -0.13200451
6.8992658 3.0993972 0.13202073
6.8966517 3.098223 0.3962341
7.8452854 3.5243833 0.75245112
7.8456511 3.5245473 1.0560646
7.4621091 3.3522468 1.2956624
7.247704 3.2559283 1.544438
7.2625842 3.2626131 1.8381165
7.2733145 3.2674332 2.1364982
1.4571463 0.67983049 -0.43084335
1.6736128 0.78082281 -0.42636633
1.9901043 0.9284817 -0.42686638
2.4391346 1.1379764 -0.42629683
3.1043749 1.4483438 -0.4206121
4.3044996 2.008261 -0.41556436
6.6459827 3.1006782 -0.38434282
6.6409822 3.098345 -0.12791386
6.6478696 3.1015584 0.12804653
6.6228819 3.0899007 0.38300693
7.8417158 3.6585467 0.75705373
7.8518934 3.6632948 1.0638539
7.4228826 3.4631402 1.2973254
6.9901299 3.26124 1.4993442
6.997714 3.2647781 1.782724
6.9985929 3.2651882 2.0693169
1.4454029 0.69971299 -0.43028834
1.6692724 0.80808717 -0.42816338
1.9837528 0.96032572 -0.42840847
2.4250884 1.1739743 -0.42673504
3.083704 1.4928071 -0.42066336
4.2720141 2.0680628 -0.41524336
6.4100337 3.1030681 -0.37322807
6.4023681 3.0993574 -0.12415961
6.4185505 3.1071913 0.12447344
6.3991299 3.0977898 0.37259319
7.841619 3.796092 0.76221192
7.8397999 3.7952116 1.069466
7.3816347 3.5734158 1.2989227
6.7439389 3.2647102 1.4564115
6.7435942 3.2645433 1.7297118
6.7348514 3.2603111 2.0049276
1.4447002 0.72507554 -0.43312436
1.6535244 0.82988161 -0.42712709
1.9844755 0.99598151 -0.43159902
2.3924713 1.2007492 -0.42397642
3.0775163 1.544564 -0.42279181
4.2534451 2.1347468 -0.4163658
6.1771789 3.1002429 -0.36221662
6.1861358 3.1047382 -0.1208157
6.179388 3.1013517 0.12068392
6.170557 3.0969195 0.36182836
7.5985489 3.8136094 0.74381495
7.5954561 3.812057 1.0434703
7.3324251 3.6800454 1.2993993
6.5065522 3.2655509 1.4150951
6.4998536 3.2621889 1.6789978
6.5111713 3.267869 1.9520637
1.4310945 0.74407625 -0.43219408
1.6388772 0.85210967 -0.4264504
1.9512132 1.0145042 -0.42747924
2.3774574 1.2361234 -0.42440775
3.0360053 1.5785255 -0.42014995
4.2266035 2.1975594 -0.41677469
5.970953 3.1045079 -0.35269353
5.9613266 3.0995028 -0.11727959
5.9487925 3.0929856 0.117033
5.9599347 3.0987792 0.35204268
7.3239765 3.8079922 0.72219878
7.3314605 3.8118834 1.0145941
7.2647252 3.7771854 1.29685
6.2698898 3.2599356 1.3736315
6.2836719 3.2671013 1.6350672
6.2850852 3.2678361 1.8981112
1.4228479 0.76585394 -0.43296978
1.6436 0.88467467 -0.43093014
1.9343401 1.0411668 -0.42700383
2.3712163 1.2763172 -0.42651111
3.0267329 1.6291518 -0.42205063
4.1882191 2.2543268 -0.41612887
5.7690268 3.1052032 -0.34335628
5.7553687 3.0978515 -0.11408835
5.7543755 3.097317 0.11406866
5.7668505 3.1040316 0.34322673
7.0774469 3.8094659 0.7031939
7.0783186 3.8099351 0.98700774
7.0771494 3.8093057 1.2729682
6.0611238 3.2624257 1.3379875
6.0590811 3.2613263 1.5886109
6.0591002 3.2613363 1.8437721
1.4023397 0.78090394 -0.43008637
1.626436 0.90569377 -0.42978486
1.9172717 1.0676479 -0.42656574
2.3603356 1.3143716 -0.42789412
3.0110431 1.6767231 -0.42316601
4.1556911 2.3141294 -0.41614538
5.5685153 3.1008718 -0.33402982
5.5503883 3.0907776 -0.11089064
5.5748701 3.1044104 0.11137975
5.5655408 3.0992153 0.33385137
6.8382373 3.8079267 0.68477201
6.8383493 3.8079889 0.96104801
6.8379779 3.8077819 1.2396247
5.8627133 3.2646983 1.3043704
5.8769073 3.2726023 1.5529696
5.8620539 3.2643311 1.7978451
1.3894353 0.79998195 -0.42959645
1.6192942 0.9323256 -0.4313798
1.8991071 1.0934309 -0.42596281
2.3290353 1.3409665 -0.42565578
2.9748187 1.7127832 -0.42147735
4.1218772 2.373214 -0.41611826
5.3869576 3.1015973 -0.32576865
5.3841305 3.0999696 -0.10844437
5.3804431 3.0978465 0.1083701
5.3678966 3.0906227 0.32461596
6.6221313 3.8127615 0.6685279
6.6165252 3.8095338 0.93744045
6.6238956 3.8137772 1.2105868
5.7339268 3.3013685 1.286099
5.6666927 3.2626579 1.5096064
5.6701145 3.2646282 1.7531304
1.3799467 0.82103688 -0.43025216
1.5920745 0.9472481 -0.42769662
1.8888675 1.1238332 -0.42723036
2.313144 1.376268 -0.42630804
2.943979 1.7516005 -0.42061698
4.0834627 2.4295673 -0.41570833
5.2149568 3.1027806 -0.31802028
5.220068 3.1058216 -0.10602444
5.2090058 3.0992398 0.10579976
5.2087946 3.0991142 0.31764451
6.4004211 3.808105 0.65158141
6.4045506 3.8105619 0.91504145
6.4102831 3.8139725 1.1814029
5.6962957 3.3891664 1.2884072
5.4813414 3.2612734 1.4725134
5.488236 3.2653754 1.7111715
1.3726956 0.8435545 -0.43171173
1.5922188 0.9784568 -0.43145353
1.8780237 1.1540909 -0.4284701
2.2918365 1.4083887 -0.42605272
2.9340968 1.8030732 -0.42284909
4.0519056 2.4899936 -0.4160814
5.0369611 3.0953338 -0.30983576
5.0500536 3.1033795 -0.1034629
5.042665 3.0988393 0.10331153
5.0487685 3.1025898 0.31056207
6.2027936 3.8117661 0.63695145
6.1938519 3.8062713 0.89263064
6.1987419 3.8092763 1.152347
5.6448488 3.4688957 1.2878692
5.2949886 3.2538979 1.4348162
5.3048425 3.2599535 1.6683691
1.3617316 0.86390692 -0.43210828
1.5657769 0.99335694 -0.42809743
1.8549134 1.1767902 -0.42699671
2.2647636 1.4368064 -0.4247995
2.9019334 1.8410385 -0.42196831
4.0281076 2.5555036 -0.41735104
4.8757033 3.0932333 -0.30260885
4.8954859 3.1057837 -0.10119659
4.8885732 3.101398 0.10105369
4.8998322 3.1085413 0.30410641
6.0008769 3.8070636 0.62174904
5.9994936 3.806186 0.87238258
6.004612 3.8094332 1.1262792
5.6068287 3.5570724 1.2906787
5.1436253 3.2632079 1.4063131
5.1365886 3.2587435 1.6299558
1.3442345 0.88003844 -0.43050906
1.5524176 1.016331 -0.42837831
1.8452545 1.2080443 -0.42870975
2.2467737 1.4709094 -0.42533064
2.882983 1.8874204 -0.4230977
3.9975441 2.6170971 -0.41802269
4.7300243 3.0966349 -0.29628795
4.7294474 3.096257 -0.098670356
4.7387891 3.1023729 0.098865256
4.7371488 3.1012988 0.29673421
4.7340002 3.0992374 0.49503383
5.8169971 3.80825 0.8536846
5.830977 3.8174021 1.1038464
5.5417094 3.6280258 1.2875106
4.9871292 3.264955 1.3761618
4.9801884 3.260411 1.5949718
1.3248776 0.89471364 -0.42836732
1.5516865 1.0478817 -0.43227109
1.8273567 1.2340467 -0.42861143
2.2204642 1.4995193 -0.42436978
2.8550615 1.9280742 -0.42300683
3.9475007 2.665818 -0.41673708
4.5843711 3.0959079 -0.28991032
4.5904331 3.1000018 -0.096685931
4.5953212 3.1033025 0.096788876
4.5852809 3.0965223 0.28996783
4.5909972 3.1003826 0.48467091
5.6455612 3.8125484 0.83644807
5.6326632 3.8038385 1.076501
5.4990444 3.7136033 1.2898155
4.8377943 3.2670491 1.3477198
4.8371124 3.2665884 1.5639639
1.3200299 0.91921937 -0.43100986
1.5243965 1.0615326 -0.42885751
1.8043723 1.2564973 -0.42739496
2.2088928 1.5381901 -0.42632237
2.8212891 1.96464 -0.42212623
3.9212756 2.7306294 -0.41805184
4.4544845 3.1019361 -0.28447506
4.4436741 3.094408 -0.094518028
4.4530516 3.1009381 0.094717488
4.4492226 3.0982718 0.28413904
4.4600945 3.1058426 0.47549596
5.4679604 3.8076825 0.81812578
5.4775176 3.8143377 1.057176
5.4426565 3.790062 1.2891818
4.6879711 3.2645273 1.3188639
4.6833944 3.2613401 1.5291995
1.3054841 0.93711674 -0.43059596
1.5210665 1.0918685 -0.43227315
1.7982171 1.2908157 -0.43026927
2.1861084 1.5692561 -0.42621642
2.8048694 2.0134218 -0.42393801
3.8788216 2.7843378 -0.41773179
4.3082719 3.0926106 -0.27793601
4.3211303 3.1018407 -0.092846341
4.3216858 3.1022394 0.092858277
4.3141866 3.0968564 0.2783176
4.3186016 3.1000254 0.46509415
5.3139567 3.8145223 0.8031705
5.3126745 3.8136015 1.0357898
5.3117695 3.812952 1.2709762
4.5454903 3.2628932 1.2917866
4.5452242 3.2627022 1.4991797
1.2902974 0.9544909 -0.43004903
1.5023571 1.111361 -0.43143263
1.7748417 1.3129301 -0.42912874
2.1654844 1.6019062 -0.42662209
2.7601657 2.0418186 -0.42155543
3.8413088 2.8415887 -0.41802934
4.1901984 3.0996783 -0.2731531
4.1891251 3.0988841 -0.090953737
4.2024112 3.1087124 0.091242202
4.1932936 3.1019676 0.27335483
4.1820416 3.0936441 0.45510948
5.1502247 3.8098526 0.78658509
5.1509724 3.8104057 1.014793
5.160378 3.8173635 1.2476982
4.4737349 3.3094227 1.2847247
4.4221778 3.2712834 1.4738876
1.2745918 0.97140211 -0.42940465
1.4769193 1.1256015 -0.4287104
1.7423887 1.3279233 -0.42583415
2.1350174 1.6271565 -0.42516461
2.7529995 2.0981381 -0.42500409
3.8053856 2.9001911 -0.41859463
4.0751448 3.105782 -0.26852331
4.0611262 3.095098 -0.089127384
4.0688133 3.1009567 0.089296088
4.0695043 3.1014831 0.26815164
4.0658741 3.0987165 0.44724849
5.0075054 3.8163602 0.77305138
5.0077209 3.8165245 0.99723107
4.9985666 3.8095477 1.2216334
4.4217248 3.3699205 1.2835093
4.2767205 3.2594085 1.4408092
1.257486 0.98713267 -0.42835799
1.4645302 1.1496633 -0.42984682
1.7313144 1.3590902 -0.42783815
